65504 65504 65504 65504 65504 65504 65504 65504 65504 65504 65504 65504 65504 65504 65504 65504 65504 65504 65504 65504 65504 65504 65504 65504 65504 65504 65504 65504 65504 65504 65504 65504 65504 65504 65504 65504 65504 65504 65504 65504 38.5313 38.4063 38.25 38.125 38 37.875 37.9063 37.9688 38 38.0625 37.9688 37.8438 37.7188 36.8125 36.6875 36.5625 36.4375 36.375 36.4063 36.4688 36.5313 36.5625 36.4375 36.3125 36.1875 35.3438 35.2188 35.0938 34.9688 34.875 34.75 34.8125 34.75 34.6563 34.5313 34.4063 34.3125 34.1875 34.0938 33.9688 33.8438 33.75 33.625 33.5313 33.4063 33.3125 33.2188 33.0938 33 32.875 32.7813 32.6875 32.5625 32.4688 32.375 32.2813 32.1563 32.0625 31.9688 31.875 31.7813 31.4531 31.3594 31.25 31.1563 31.0625 30.9688 30.875 30.6719 30.5781 30.4844 30.3906 30.2969 30.2031 30.1094 30.0781 30.1406 29.9531 29.875 29.7813 29.6875 29.6094 29.5469 29.6094 29.6875 29.75 29.7969 29.7031 29.625 29.5313 29.4531 29.3594 28.6875 28.6094 28.5156 28.4375 28.3594 28.2813 28.2031 28.125 28.1563 28.0781 28 27.9219 27.8594 27.8125 27.75 27.7031 27.6406 27.5625 27.2969 27.2188 27.1563 27.0781 27.0156 26.9375 26.9219 26.9844 26.9219 26.8438 26.7813 26.7188 26.6406 26.5781 26.5156 26.4375 26.375 26.125 26.0625 25.9844 25.9219 25.8594 25.7969 25.7344 25.6719 25.6094 25.6719 25.6719 25.6094 25.5469 25.4844 25.4219 25.3594 25.3125 25.25 25.1875 25.125 25.0781 25.0156 24.9531 24.9063 24.8438 24.7813 24.7344 24.6719 24.625 24.5625 24.5156 24.4531 24.4063 24.3594 24.2969 24.25 24.2031 24.1406 24.0938 24.0469 23.9844 23.9375 23.8906 23.8438 23.7969 23.75 23.7031 23.6406 23.5938 23.5469 23.5 23.4531 23.4063 23.375 23.3281 23.1094 23.0625 23.0156 22.9844 22.9375 22.8906 22.8438 22.8125 22.7656 22.75 22.8438 22.7969 22.7656 22.7188 22.6719 22.6406 22.5938 22.5625 22.5156 22.4844 22.4375 22.4063 22.3594 22.3281 22.125 22.0938 22.0625 22.0156 21.9844 21.9531 21.9063 21.875 21.8438 21.9688 21.9375 21.9063 21.8594 21.8281 21.7969 21.7656 21.7344 21.7031 21.6719 21.6406 21.6094 21.5781 21.5469 21.5156 21.3281 21.2969 21.2656 21.2344 21.2031 21.1875 21.1563 21.125 21.0938 21.0625 21.0469 21.0156 20.9844 21.0781 21.2344 21.3906 21.5625 21.7344 22.2813 22.4531 22.625 22.8125 22.9219 22.8906 22.9688 23.1563 23.3594 23.9688 24.1719 24.375 24.5938 24.6094 24.5938 24.8125 25.0313 25.25 25.9375 26.1719 26.4219 26.6719 26.9219 27.1719 27.4375 27.7031 27.9844 28.2656 28.5469 28.8281 29.125 29.3125 29.2813 29.5469 29.8594 31.2344 31.2031 31.1875 31.1875 31.5469 32.9063 32.875 32.8438 33.0313 33.4375 34.4063 34.7813 34.75 35.0938 36.1563 36.4688 36.4688 36.9375 38.0938 38.625 39.1563 39.6875 40.25 40.8125 41.3438 41.3125 41.9063 43.2188 43.2188 43.8438 45 45.25 65504 65504 65504 65504 65504 65504 65504 65504 65504 65504 65504 65504 65504 65504 65504 65504 65504 65504 65504 65504 65504 65504 65504 65504 65504 65504 65504 65504 65504 65504 65504 65504 65504 65504 65504 65504 65504 65504 65504 65504 65504 65504 65504 65504 65504 65504 65504 65504 65504 65504 65504 65504 65504 65504 65504 65504 65504 65504 65504 65504 65504 65504 65504 65504 65504 65504 65504 65504 65504 65504 65504 65504 65504 65504 65504 65504 65504 65504 65504 65504 65504 65504 65504 65504 65504 65504 65504 65504 65504 65504 65504 65504 65504
65504 65504 65504 65504 65504 65504 65504 65504 65504 65504 65504 65504 65504 65504 65504 65504 65504 65504 65504 65504 65504 65504 65504 65504 65504 65504 65504 65504 65504 65504 65504 65504 65504 65504 65504 65504 65504 65504 65504 65504 38.5313 38.375 38.25 38.125 37.9688 37.8438 37.875 37.9375 38 38.0313 37.9688 37.8438 37.6875 36.8125 36.6875 36.5625 36.4063 36.3438 36.375 36.4375 36.5 36.5625 36.4375 36.3125 36.1875 35.3125 35.1875 35.0938 34.9688 34.8438 34.75 34.7813 34.75 34.625 34.5313 34.4063 34.2813 34.1875 34.0625 33.9688 33.8438 33.7188 33.625 33.5 33.4063 33.2813 33.1875 33.0938 32.9688 32.875 32.7813 32.6563 32.5625 32.4688 32.3438 32.25 32.1563 32.0625 31.9531 31.8594 31.7656 31.4375 31.3281 31.2344 31.1406 31.0469 30.9531 30.8594 30.6406 30.5625 30.4688 30.375 30.2813 30.1875 30.0938 30.0469 30.1094 29.9375 29.8594 29.7656 29.6719 29.5938 29.5313 29.5938 29.6719 29.7344 29.7656 29.1875 29.1094 29.0313 28.9375 28.8594 28.6719 28.5781 28.5 28.4219 28.3438 28.2656 28.1875 28.1094 28.1719 28.1563 28.0781 28 27.9219 27.8438 27.7813 27.7031 27.625 27.5469 27.2813 27.2031 27.1406 27.0625 26.9844 26.9219 26.8906 26.9688 26.9063 26.8281 26.7656 26.7031 26.625 26.5625 26.4844 26.4219 26.3594 26.1094 26.0313 25.9688 25.9063 25.8438 25.7813 25.7188 25.6563 25.5938 25.6406 25.6563 25.5938 25.5313 25.4688 25.4063 25.3438 25.2969 25.2344 25.1719 25.1094 25.0625 25 24.9375 24.8906 24.8281 24.7656 24.7188 24.6563 24.6094 24.5469 24.5 24.4375 24.3906 24.3438 24.2813 24.2344 24.1719 24.125 24.0781 24.0313 23.9688 23.9219 23.875 23.8281 23.7813 23.7344 23.6719 23.625 23.5781 23.5313 23.4844 23.4375 23.3906 23.3438 23.3125 23.0938 23.0469 23 22.9531 22.9219 22.875 22.8281 22.7813 22.75 22.7344 22.8281 22.7813 22.75 22.7031 22.6563 22.625 22.5781 22.5469 22.5 22.4688 22.4219 22.3906 22.3438 22.3125 22.1094 22.0781 22.0469 22 21.9688 21.9375 21.8906 21.8594 21.8281 21.9531 21.9219 21.875 21.8438 21.8125 21.7813 21.75 21.7188 21.6875 21.6563 21.625 21.5938 21.5625 21.5313 21.5 21.3125 21.2813 21.25 21.2188 21.1875 21.1719 21.1406 21.1094 21.0781 21.0469 21.0313 21 20.9688 21.0625 21.2188 21.375 21.5469 21.7031 22.2656 22.4375 22.6094 22.7969 22.9063 22.875 22.9531 23.1406 23.3438 23.9531 24.1563 24.3594 24.5625 24.5938 24.5781 24.7969 25.0156 25.2344 25.9219 26.1563 26.4063 26.6406 26.9063 27.1563 27.4219 27.6875 27.9688 28.2344 28.5313 28.8125 29.1094 29.2813 29.2656 29.5156 29.8438 31.2188 31.1875 31.1563 31.1719 31.5313 32.875 32.8438 32.8125 33 33.4063 34.4063 34.75 34.75 35.0938 36.1563 36.4375 36.4375 36.9375 38.0938 38.5938 39.125 39.6563 40.2188 40.7813 41.3125 41.2813 41.875 43.1875 43.1875 43.8125 44.9688 45.2188 65504 65504 65504 65504 65504 65504 65504 65504 65504 65504 65504 65504 65504 65504 65504 65504 65504 65504 65504 65504 65504 65504 65504 65504 65504 65504 65504 65504 65504 65504 65504 65504 65504 65504 65504 65504 65504 65504 65504 65504 65504 65504 65504 65504 65504 65504 65504 65504 65504 65504 65504 65504 65504 65504 65504 65504 65504 65504 65504 65504 65504 65504 65504 65504 65504 65504 65504 65504 65504 65504 65504 65504 65504 65504 65504 65504 65504 65504 65504 65504 65504 65504 65504 65504 65504 65504 65504 65504 65504 65504 65504 65504 65504
65504 65504 65504 65504 65504 65504 65504 65504 65504 65504 65504 65504 65504 65504 65504 65504 65504 65504 65504 65504 65504 65504 65504 65504 65504 65504 65504 65504 65504 65504 65504 65504 65504 65504 65504 65504 65504 65504 65504 65504 38.5 38.375 38.25 38.0938 37.9688 37.8438 37.875 37.9063 37.9688 38 37.9375 37.8125 37.6875 36.7813 36.6563 36.5313 36.4063 36.3125 36.375 36.4063 36.4688 36.5313 36.4063 36.2813 36.1563 35.3125 35.1875 35.0625 34.9375 34.8438 34.7188 34.7813 34.7188 34.625 34.5 34.375 34.2813 34.1563 34.0625 33.9375 33.8125 33.7188 33.5938 33.5 33.375 33.2813 33.1875 33.0625 32.9688 32.8438 32.75 32.6563 32.5313 32.4375 32.3438 32.25 32.125 32.0313 31.9375 31.8438 31.7344 31.4219 31.3125 31.2188 31.125 31.0313 30.9375 30.8438 30.625 30.5313 30.4531 30.3594 30.2656 30.1719 30.0781 30.0313 30.0938 29.9219 29.8438 29.75 29.6563 29.5781 29.5 29.5156 29.4375 29.3438 29.2656 29.1719 29.0938 29.0156 28.9219 28.8438 28.6563 28.5625 28.4844 28.4063 28.3281 28.25 28.1719 28.0938 28.1406 28.1406 28.0625 27.9844 27.9063 27.8281 27.75 27.6875 27.6094 27.5313 27.2656 27.1875 27.125 27.0469 26.9688 26.9063 26.875 26.9531 26.8906 26.8125 26.75 26.6719 26.6094 26.5469 26.4688 26.4063 26.3438 26.0938 26.0156 25.9531 25.8906 25.8281 25.7656 25.7031 25.6406 25.5781 25.625 25.6406 25.5781 25.5156 25.4531 25.3906 25.3281 25.2656 25.2188 25.1563 25.0938 25.0313 24.9844 24.9219 24.8594 24.8125 24.75 24.7031 24.6406 24.5938 24.5313 24.4844 24.4219 24.375 24.3125 24.2656 24.2188 24.1563 24.1094 24.0625 24.0156 23.9531 23.9063 23.8594 23.8125 23.7656 23.7188 23.6563 23.6094 23.5625 23.5156 23.4688 23.4219 23.375 23.3281 23.2813 23.0781 23.0313 22.9844 22.9375 22.9063 22.8594 22.8125 22.7656 22.7344 22.7188 22.8125 22.7656 22.7344 22.6875 22.6406 22.6094 22.5625 22.5313 22.4844 22.4531 22.4063 22.375 22.3281 22.2969 22.0938 22.0625 22.0313 21.9844 21.9531 21.9219 21.875 21.8438 21.8125 21.9219 21.9063 21.8594 21.8281 21.7969 21.7656 21.7344 21.7031 21.6719 21.6406 21.6094 21.5781 21.5625 21.5781 21.5781 21.2969 21.2656 21.2344 21.2031 21.1719 21.1406 21.125 21.0938 21.0625 21.0313 21.0156 20.9844 20.9531 21.0469 21.2031 21.3594 21.5313 21.6875 22.25 22.4219 22.5938 22.7813 22.8906 22.8594 22.9375 23.125 23.3281 23.9375 24.1406 24.3438 24.5469 24.5781 24.5469 24.7656 25 25.2188 25.8906 26.1406 26.375 26.625 26.875 27.1406 27.4063 27.6719 27.9375 28.2188 28.5 28.7969 29.0938 29.2656 29.2344 29.5 29.8125 31.1875 31.1563 31.1406 31.1563 31.5 32.8438 32.8125 32.7813 33 33.375 34.5 34.75 34.7188 35.0625 36.125 36.4063 36.4375 36.9063 38.0625 38.5625 39.0938 39.6563 40.1875 40.7813 41.2813 41.25 41.8438 43.1563 43.1563 44.9688 44.9375 45.1875 65504 65504 65504 65504 65504 65504 65504 65504 65504 65504 65504 65504 65504 65504 65504 65504 65504 65504 65504 65504 65504 65504 65504 65504 65504 65504 65504 65504 65504 65504 65504 65504 65504 65504 65504 65504 65504 65504 65504 65504 65504 65504 65504 65504 65504 65504 65504 65504 65504 65504 65504 65504 65504 65504 65504 65504 65504 65504 65504 65504 65504 65504 65504 65504 65504 65504 65504 65504 65504 65504 65504 65504 65504 65504 65504 65504 65504 65504 65504 65504 65504 65504 65504 65504 65504 65504 65504 65504 65504 65504 65504 65504 65504
65504 65504 65504 65504 65504 65504 65504 65504 65504 65504 65504 65504 65504 65504 65504 65504 65504 65504 65504 65504 65504 65504 65504 65504 65504 65504 65504 65504 65504 65504 65504 65504 65504 65504 65504 65504 65504 65504 65504 65504 38.5 38.3438 38.2188 38.0938 37.9375 37.8125 37.8438 37.9063 37.9375 38 37.9375 37.8125 37.6563 36.7813 36.6563 36.5313 36.4063 36.2813 36.3438 36.4063 36.4375 36.5 36.4063 36.2813 36.1563 35.2813 35.1563 35.0625 34.9375 34.8125 34.6875 34.75 34.7188 34.5938 34.5 34.375 34.25 34.1563 34.0313 33.9375 33.8125 33.6875 33.5938 33.4688 33.375 33.25 33.1563 33.0625 32.9375 32.8438 32.75 32.625 32.5313 32.4375 32.3125 32.2188 32.125 32.0313 31.9219 31.8281 31.7188 31.4063 31.2969 31.2031 31.1094 31.0156 30.9219 30.8281 30.6094 30.5156 30.4375 30.3438 30.25 30.2188 30.1719 30.1406 30.1094 29.9063 29.8281 29.7344 29.6406 29.5625 29.4844 29.5 29.4219 29.3281 29.2656 29.2031 29.1563 29.0938 29 28.9219 28.6406 28.5469 28.4688 28.3906 28.3125 28.2344 28.1563 28.0781 28.125 28.125 28.0469 27.9688 27.8906 27.8125 27.7344 27.6719 27.5938 27.5156 27.25 27.1719 27.0938 27.0313 26.9531 26.8906 26.8594 26.9375 26.875 26.7969 26.7344 26.6563 26.5938 26.5313 26.4531 26.3906 26.3281 26.0625 26 25.9375 25.875 25.8125 25.75 25.6875 25.625 25.5625 25.6094 25.625 25.5625 25.5 25.4375 25.375 25.3125 25.25 25.2031 25.1406 25.0781 25.0156 24.9688 24.9063 24.8438 24.7969 24.7344 24.6875 24.625 24.5781 24.5156 24.4688 24.4063 24.3594 24.2969 24.25 24.2031 24.1406 24.0938 24.0469 23.9844 23.9375 23.8906 23.8438 23.7969 23.75 23.6875 23.6406 23.5938 23.5469 23.5 23.4531 23.4063 23.3594 23.3125 23.2656 23.0625 23.0156 22.9688 22.9219 22.8906 22.8438 22.7969 22.75 22.7188 22.7031 22.7969 22.75 22.7031 22.6719 22.625 22.5938 22.5469 22.5156 22.4688 22.4375 22.3906 22.3594 22.3125 22.2813 22.0781 22.0469 22.0156 21.9688 21.9375 21.9063 21.8594 21.8281 21.7969 21.9063 21.8906 21.8438 21.8125 21.7969 21.7969 21.7969 21.7969 21.7969 21.7969 21.7969 21.7969 21.7969 21.7813 21.75 21.2813 21.25 21.2188 21.1875 21.1563 21.125 21.1094 21.0781 21.0469 21.0156 21 20.9688 20.9375 21.0313 21.1875 21.3438 21.5156 21.6719 22.2344 22.4063 22.5781 22.7656 22.875 22.8438 22.9219 23.1094 23.3125 23.9063 24.1094 24.3281 24.5313 24.5625 24.5313 24.75 24.9844 25.2031 25.875 26.125 26.3594 26.6094 26.8594 27.125 27.3906 27.6563 27.9219 28.2031 28.4844 28.7813 29.0781 29.25 29.2188 29.4844 29.7969 31.1719 31.1406 31.1094 31.1406 31.4844 32.8125 32.7813 32.7813 32.9688 33.375 34.75 34.7188 34.6875 35.0313 36.0938 36.375 36.4063 36.875 38.0313 38.5625 39.0625 39.625 40.1875 40.75 41.25 41.2188 41.8438 43.125 43.125 44.9375 44.9063 45.1563 65504 65504 65504 65504 65504 65504 65504 65504 65504 65504 65504 65504 65504 65504 65504 65504 65504 65504 65504 65504 65504 65504 65504 65504 65504 65504 65504 65504 65504 65504 65504 65504 65504 65504 65504 65504 65504 65504 65504 65504 65504 65504 65504 65504 65504 65504 65504 65504 65504 65504 65504 65504 65504 65504 65504 65504 65504 65504 65504 65504 65504 65504 65504 65504 65504 65504 65504 65504 65504 65504 65504 65504 65504 65504 65504 65504 65504 65504 65504 65504 65504 65504 65504 65504 65504 65504 65504 65504 65504 65504 65504 65504 65504
65504 65504 65504 65504 65504 65504 65504 65504 65504 65504 65504 65504 65504 65504 65504 65504 65504 65504 65504 65504 65504 65504 65504 65504 65504 65504 65504 65504 65504 65504 65504 65504 65504 65504 65504 65504 65504 65504 65504 65504 38.4688 38.3438 38.2188 38.0625 37.9375 37.8125 37.8125 37.875 37.9063 37.9688 37.9063 37.7813 37.6563 36.75 36.625 36.5 36.375 36.2813 36.3125 36.375 36.4375 36.4688 36.375 36.25 36.125 35.2813 35.1563 35.0313 34.9063 34.8125 34.6875 34.7188 34.6875 34.5938 34.4688 34.3438 34.25 34.125 34.0313 33.9063 33.7813 33.6875 33.5625 33.4688 33.3438 33.25 33.1563 33.0313 32.9375 32.8125 32.7188 32.625 32.5 32.4063 32.3125 32.2188 32.0938 32 31.9063 31.8125 31.7031 31.3906 31.2813 31.1875 31.0938 31 30.9063 30.8125 30.7969 30.6875 30.6406 30.5625 30.4688 30.375 30.2813 30.1875 30.0938 29.8906 29.8125 29.7188 29.625 29.5469 29.4688 29.5313 29.5 29.4063 29.3281 29.2344 29.1563 29.0781 28.9844 28.9063 28.625 28.5313 28.4531 28.375 28.2969 28.2188 28.1406 28.0625 28.1094 28.1094 28.0313 27.9531 27.875 27.7969 27.7188 27.6563 27.5781 27.5 27.2344 27.1563 27.0781 27.0156 26.9375 26.875 26.8438 26.9219 26.8594 26.7813 26.7188 26.6406 26.5781 26.5156 26.4375 26.375 26.3125 26.0469 25.9844 25.9219 25.8594 25.7969 25.7344 25.6719 25.6094 25.5469 25.5938 25.6094 25.5469 25.4844 25.4219 25.3594 25.2969 25.2344 25.1875 25.125 25.0625 25 24.9531 24.8906 24.8281 24.7813 24.7188 24.6719 24.6094 24.5625 24.5 24.4531 24.3906 24.3438 24.2813 24.2344 24.1875 24.125 24.0781 24.0313 23.9688 23.9219 23.875 23.8281 23.7813 23.7188 23.6719 23.625 23.5781 23.5313 23.4844 23.4375 23.3906 23.3438 23.2969 23.25 23.0469 23 22.9531 22.9063 22.875 22.8281 22.7813 22.7344 22.7031 22.6875 22.7813 22.7344 22.6875 22.6563 22.6094 22.5781 22.5313 22.5 22.4531 22.4219 22.375 22.3438 22.2969 22.2656 22.0625 22.0313 22 21.9531 21.9219 21.8906 21.8438 21.8125 21.7813 21.8906 22.0313 22.0469 22.0469 22.0469 22.0313 22 21.9688 21.9219 21.8906 21.8594 21.8281 21.7969 21.7656 21.7344 21.2656 21.2344 21.2031 21.1719 21.1406 21.125 21.0938 21.0625 21.0313 21 20.9844 20.9531 20.9219 21.0156 21.1719 21.3281 21.5 21.6563 22.2188 22.3906 22.5625 22.75 22.8594 22.8281 22.9063 23.0938 23.2969 23.8906 24.0938 24.3125 24.5156 24.5469 24.5156 24.7344 24.9531 25.1875 25.8594 26.1094 26.3438 26.5938 26.8438 27.1094 27.3594 27.6406 27.9063 28.1875 28.4688 28.7656 29.0625 29.2188 29.2031 29.4688 29.7813 31.1406 31.125 31.0938 31.1094 31.4688 32.8125 32.7813 32.75 32.9375 33.3438 34.7188 34.6875 34.6563 35.0313 36.0938 36.375 36.375 36.875 38 38.5313 39.0625 39.5938 40.1563 40.7188 41.2188 41.1875 41.8125 43.125 43.0938 44.9063 44.875 45.1563 65504 65504 65504 65504 65504 65504 65504 65504 65504 65504 65504 65504 65504 65504 65504 65504 65504 65504 65504 65504 65504 65504 65504 65504 65504 65504 65504 65504 65504 65504 65504 65504 65504 65504 65504 65504 65504 65504 65504 65504 65504 65504 65504 65504 65504 65504 65504 65504 65504 65504 65504 65504 65504 65504 65504 65504 65504 65504 65504 65504 65504 65504 65504 65504 65504 65504 65504 65504 65504 65504 65504 65504 65504 65504 65504 65504 65504 65504 65504 65504 65504 65504 65504 65504 65504 65504 65504 65504 65504 65504 65504 65504 65504
65504 65504 65504 65504 65504 65504 65504 65504 65504 65504 65504 65504 65504 65504 65504 65504 65504 65504 65504 65504 65504 65504 65504 65504 65504 65504 65504 65504 65504 65504 65504 65504 65504 65504 65504 65504 65504 65504 65504 65504 38.4688 38.3438 38.1875 38.0625 37.9375 37.7813 37.8125 37.8438 37.9063 37.9375 37.9063 37.7813 37.6563 36.75 36.625 36.5 36.375 36.25 36.3125 36.3438 36.4063 36.4688 36.375 36.25 36.125 35.25 35.125 35.0313 34.9063 34.7813 34.6563 34.7188 34.6875 34.5625 34.4688 34.3438 34.2188 34.125 34 33.9063 33.7813 33.6563 33.5625 33.4375 33.3438 33.25 33.125 33.0313 32.9063 32.8125 32.7188 32.5938 32.5 32.4063 32.2813 32.1875 32.0938 32 31.8906 31.7969 31.6875 31.375 31.2656 31.1719 31.0781 30.9844 30.8906 30.7969 30.7813 30.7188 30.625 30.5469 30.4531 30.3594 30.2969 30.2344 30.1719 29.875 29.7969 29.7031 29.6094 29.5313 29.4531 29.5156 29.4844 29.3906 29.3125 29.2188 29.1406 29.0625 28.9688 28.8906 28.5938 28.5156 28.4375 28.3594 28.2813 28.2031 28.125 28.0469 28.0938 28.0938 28.0156 27.9375 27.8594 27.7813 27.7031 27.625 27.5625 27.4844 27.2188 27.1406 27.0625 27 26.9219 26.8594 26.8125 26.8906 26.8438 26.7656 26.7031 26.625 26.5625 26.5 26.4219 26.3594 26.2969 26.0313 25.9688 25.9063 25.8438 25.7813 25.7188 25.6563 25.5938 25.5313 25.5781 25.5938 25.5313 25.4688 25.4063 25.3438 25.2813 25.2188 25.1563 25.1094 25.0469 24.9844 24.9375 24.875 24.8125 24.7656 24.7031 24.6563 24.5938 24.5313 24.4844 24.4375 24.375 24.3281 24.2656 24.2188 24.1719 24.1094 24.0625 24.0156 23.9531 23.9063 23.8594 23.8125 23.7656 23.7031 23.6563 23.6094 23.5625 23.5156 23.4688 23.4219 23.375 23.3281 23.2813 23.2344 23.0313 22.9844 22.9375 22.8906 22.8594 22.8125 22.7656 22.7188 22.6875 22.6719 22.7656 22.7188 22.6719 22.6406 22.5938 22.5625 22.5156 22.4844 22.4375 22.4063 22.3594 22.3281 22.3281 22.3125 22.0469 22.0156 21.9844 21.9375 21.9063 21.875 21.8281 21.7969 21.7656 21.875 22.0156 22.1094 22.0781 22.0469 22.0156 21.9844 21.9531 21.9063 21.875 21.8438 21.8125 21.7813 21.75 21.7188 21.25 21.2188 21.1875 21.1563 21.125 21.1094 21.0781 21.0469 21.0156 20.9844 20.9688 20.9375 20.9063 21 21.1563 21.3125 21.4844 21.6406 22.3594 22.375 22.5469 22.7344 22.8438 22.8125 22.8906 23.0781 23.2656 23.875 24.0781 24.2969 24.5 24.5313 24.5 24.7188 24.9375 25.1719 25.8438 26.0781 26.3281 26.5781 26.8281 27.0938 27.3438 27.6094 27.8906 28.1719 28.4531 28.7344 29.0313 29.2031 29.1719 29.4531 29.7656 31.125 31.0938 31.0625 31.0938 31.4531 32.7813 32.75 32.7188 32.9375 33.3125 34.6875 34.6563 34.625 35 36.0625 36.3438 36.375 36.8438 38 38.5 39.0313 39.5625 40.125 40.7188 41.1875 41.1875 41.7813 43.0938 43.0625 44.875 44.8438 45.125 65504 65504 65504 65504 65504 65504 65504 65504 65504 65504 65504 65504 65504 65504 65504 65504 65504 65504 65504 65504 65504 65504 65504 65504 65504 65504 65504 65504 65504 65504 65504 65504 65504 65504 65504 65504 65504 65504 65504 65504 65504 65504 65504 65504 65504 65504 65504 65504 65504 65504 65504 65504 65504 65504 65504 65504 65504 65504 65504 65504 65504 65504 65504 65504 65504 65504 65504 65504 65504 65504 65504 65504 65504 65504 65504 65504 65504 65504 65504 65504 65504 65504 65504 65504 65504 65504 65504 65504 65504 65504 65504 65504 65504
65504 65504 65504 65504 65504 65504 65504 65504 65504 65504 65504 65504 65504 65504 65504 65504 65504 65504 65504 65504 65504 65504 65504 65504 65504 65504 65504 65504 65504 65504 65504 65504 65504 65504 65504 65504 65504 65504 65504 65504 38.4688 38.3125 38.1875 38.0313 37.9063 37.7813 37.7813 37.8125 37.875 37.9375 37.9063 37.75 37.625 36.7188 36.5938 36.4688 36.3438 36.2188 36.2813 36.3438 36.375 36.4375 36.3438 36.2188 36.0938 35.25 35.125 35 34.875 34.7813 34.6563 34.6875 34.6563 34.5625 34.4375 34.3125 34.2188 34.0938 34 33.875 33.7813 33.6563 33.5313 33.4375 33.3125 33.2188 33.125 33 32.9063 32.7813 32.6875 32.5938 32.4688 32.375 32.2813 32.1875 32.0625 31.9844 31.875 31.7813 31.6719 31.3594 31.25 31.1563 31.0625 30.9688 30.875 30.7813 30.75 30.7813 30.7188 30.625 30.5313 30.4375 30.3438 30.2656 30.1719 29.8594 29.7813 29.6875 29.5938 29.5156 29.4219 29.5 29.4688 29.375 29.2969 29.2031 29.125 29.0469 28.9531 28.875 28.5781 28.5 28.4219 28.3438 28.2656 28.1875 28.1094 28.0313 28.0625 28.0781 28 27.9219 27.8438 27.7656 27.6875 27.6094 27.5469 27.4688 27.2031 27.125 27.0469 26.9844 26.9063 26.8438 26.7969 26.875 26.8281 26.75 26.6875 26.6094 26.5469 26.4844 26.4063 26.3438 26.2813 26.0156 25.9531 25.8906 25.8281 25.7656 25.7031 25.6406 25.5781 25.5156 25.5469 25.5781 25.5156 25.4531 25.3906 25.3281 25.2656 25.2031 25.1406 25.0938 25.0313 24.9688 24.9219 24.8594 24.7969 24.75 24.6875 24.625 24.5781 24.5156 24.4688 24.4063 24.3594 24.3125 24.25 24.2031 24.1563 24.0938 24.0469 24 23.9375 23.8906 23.8438 23.7969 23.75 23.6875 23.6406 23.5938 23.5469 23.5 23.4531 23.4063 23.3594 23.3125 23.2656 23.2188 23.0156 22.9688 22.9219 22.875 22.8438 22.7969 22.75 22.7031 22.6719 22.6406 22.75 22.7031 22.6563 22.625 22.6094 22.6094 22.5938 22.5938 22.5938 22.5781 22.5781 22.5781 22.5781 22.5313 22.0313 22 21.9688 21.9219 21.8906 21.8594 21.8125 21.7813 21.75 21.8594 22 22.0938 22.0625 22.0313 22 21.9688 21.9375 21.8906 21.8594 21.8281 21.7969 21.7656 21.7344 21.7031 21.2344 21.2031 21.1719 21.1406 21.1094 21.0938 21.0625 21.0313 21 20.9688 20.9531 20.9219 20.8906 20.9844 21.1406 21.2969 21.4688 21.6406 22.6094 22.625 22.625 22.7188 22.8281 22.7969 22.875 23.0625 23.25 23.8594 24.0625 24.2813 24.4844 24.5156 24.4844 24.7031 24.9219 25.1563 25.8281 26.0625 26.3125 26.5625 26.8125 27.0625 27.3281 27.5938 27.875 28.1563 28.4375 28.7188 29.0156 29.1875 29.1563 29.4219 29.75 31.0938 31.0781 31.0469 31.0781 31.4219 32.75 32.7188 32.6875 32.9063 33.3125 34.6563 34.625 34.625 34.9688 36.1875 36.3125 36.3438 36.8125 37.9688 38.5 39 39.5625 40.125 40.6875 41.1563 41.1563 41.7813 43.0625 43.0313 44.8438 44.8125 45.0938 65504 65504 65504 65504 65504 65504 65504 65504 65504 65504 65504 65504 65504 65504 65504 65504 65504 65504 65504 65504 65504 65504 65504 65504 65504 65504 65504 65504 65504 65504 65504 65504 65504 65504 65504 65504 65504 65504 65504 65504 65504 65504 65504 65504 65504 65504 65504 65504 65504 65504 65504 65504 65504 65504 65504 65504 65504 65504 65504 65504 65504 65504 65504 65504 65504 65504 65504 65504 65504 65504 65504 65504 65504 65504 65504 65504 65504 65504 65504 65504 65504 65504 65504 65504 65504 65504 65504 65504 65504 65504 65504 65504 65504
65504 65504 65504 65504 65504 65504 65504 65504 65504 65504 65504 65504 65504 65504 65504 65504 65504 65504 65504 65504 65504 65504 65504 65504 65504 65504 65504 65504 65504 65504 65504 65504 65504 65504 65504 65504 65504 65504 65504 65504 38.4375 38.3125 38.1563 38.0313 37.9063 37.75 37.75 37.8125 37.8438 37.9063 37.875 37.75 37.625 36.7188 36.5938 36.4688 36.3438 36.2188 36.25 36.3125 36.375 36.4063 36.3438 36.2188 36.0938 35.2188 35.125 35 34.875 34.75 34.625 34.6563 34.6563 34.5313 34.4375 34.3125 34.1875 34.0938 33.9688 33.875 33.75 33.625 33.5313 33.4063 33.3125 33.2188 33.0938 33 32.875 32.7813 32.6875 32.5625 32.4688 32.375 32.25 32.1563 32.0625 31.9688 31.8594 31.7656 31.6563 31.3438 31.2344 31.1406 31.0469 30.9531 30.8594 30.7656 30.7344 30.7969 30.7031 30.6094 30.5156 30.4219 30.3281 30.25 30.1563 29.8438 29.7656 29.6719 29.5781 29.5 29.4063 29.4688 29.4531 29.3594 29.2813 29.1875 29.1094 29.0313 28.9375 28.8594 28.5625 28.4844 28.4063 28.3281 28.25 28.1719 28.0938 28.0156 28.0469 28.0625 27.9844 27.9063 27.8281 27.75 27.6719 27.5938 27.5313 27.4531 27.1875 27.1094 27.0313 26.9688 26.8906 26.8281 26.7813 26.8594 26.8125 26.7344 26.6719 26.5938 26.5313 26.4688 26.3906 26.3281 26.2656 26 25.9375 25.875 25.8125 25.75 25.6875 25.625 25.5625 25.5 25.5313 25.5469 25.5 25.4375 25.375 25.3125 25.25 25.1875 25.125 25.0781 25.0156 24.9531 24.9063 24.8438 24.7813 24.7344 24.6719 24.6094 24.5625 24.5 24.4531 24.3906 24.3438 24.2969 24.2344 24.1875 24.125 24.0781 24.0313 23.9844 23.9219 23.875 23.8281 23.7813 23.7344 23.6719 23.625 23.5781 23.5313 23.4844 23.4375 23.3906 23.3438 23.2969 23.25 23.2031 23 22.9531 22.9063 22.8594 22.8281 22.7813 22.7344 22.6875 22.6563 22.625 22.75 22.8594 22.875 22.875 22.875 22.8281 22.7969 22.75 22.7031 22.6719 22.625 22.5938 22.5469 22.5156 22.0156 21.9844 21.9531 21.9063 21.875 21.8438 21.7969 21.7656 21.7344 21.8438 21.9844 22.0781 22.0469 22.0156 21.9844 21.9531 21.9219 21.875 21.8438 21.8125 21.7813 21.75 21.7188 21.6875 21.2188 21.1875 21.1563 21.125 21.0938 21.0781 21.0469 21.0156 20.9844 20.9531 20.9375 20.9063 20.875 20.9688 21.125 21.2813 21.4531 21.625 22.875 22.875 22.8594 22.8281 22.7969 22.7813 22.8594 23.0469 23.2344 23.8438 24.0469 24.2656 24.4688 24.4844 24.4688 24.6875 24.9063 25.1406 25.8125 26.0469 26.2969 26.5469 26.7969 27.0469 27.3125 27.5781 27.8594 28.125 28.4219 28.7031 29 29.1563 29.1406 29.4063 29.7188 31.0781 31.0469 31.0313 31.0625 31.4063 32.7188 32.6875 32.6875 32.9063 33.2813 34.625 34.625 34.5938 34.9688 36.3125 36.2813 36.3438 36.8125 37.9688 38.4688 39 39.5313 40.0938 40.6563 41.125 41.125 41.75 43.0313 43.0313 44.8125 44.7813 45.0938 65504 65504 65504 65504 65504 65504 65504 65504 65504 65504 65504 65504 65504 65504 65504 65504 65504 65504 65504 65504 65504 65504 65504 65504 65504 65504 65504 65504 65504 65504 65504 65504 65504 65504 65504 65504 65504 65504 65504 65504 65504 65504 65504 65504 65504 65504 65504 65504 65504 65504 65504 65504 65504 65504 65504 65504 65504 65504 65504 65504 65504 65504 65504 65504 65504 65504 65504 65504 65504 65504 65504 65504 65504 65504 65504 65504 65504 65504 65504 65504 65504 65504 65504 65504 65504 65504 65504 65504 65504 65504 65504 65504 65504
65504 65504 65504 65504 65504 65504 65504 65504 65504 65504 65504 65504 65504 65504 65504 65504 65504 65504 65504 65504 65504 65504 65504 65504 65504 65504 65504 65504 65504 65504 65504 65504 65504 65504 65504 65504 65504 65504 65504 65504 38.4375 38.2813 38.1563 38.0313 37.875 37.75 37.75 37.7813 37.8438 37.875 37.875 37.7188 37.5938 36.6875 36.5625 36.4375 36.3125 36.1875 36.25 36.2813 36.3438 36.4063 36.3125 36.1875 36.0625 35.2188 35.0938 34.9688 34.875 34.75 34.625 34.6563 34.6563 34.5313 34.4063 34.3125 34.1875 34.0625 33.9688 33.8438 33.75 33.625 33.5313 33.4063 33.3125 33.1875 33.0938 32.9688 32.875 32.75 32.6563 32.5625 32.4375 32.3438 32.25 32.1563 32.0313 31.9531 31.8438 31.75 31.6563 31.3281 31.2344 31.125 31.0313 30.9375 30.8438 30.75 30.7188 30.7813 30.6875 30.5938 30.5 30.4063 30.3125 30.2344 30.1406 29.8281 29.75 29.6563 29.5625 29.4844 29.3906 29.4531 29.4375 29.3438 29.2656 29.1719 29.0938 29.0156 28.9219 28.8438 28.5469 28.4688 28.3906 28.3125 28.2344 28.1563 28.0781 28 28.0313 28.0469 27.9688 27.8906 27.8125 27.7344 27.6563 27.5781 27.5156 27.4375 27.1719 27.0938 27.0156 26.9531 26.875 26.8125 26.7656 26.8438 26.7969 26.7188 26.6563 26.5781 26.5156 26.4375 26.375 26.3125 26.25 25.9844 25.9219 25.8594 25.7969 25.7344 25.6719 25.6094 25.5469 25.4844 25.5156 25.5313 25.4844 25.4219 25.3594 25.2969 25.2344 25.1719 25.1094 25.0625 25 24.9375 24.8906 24.8281 24.7656 24.7188 24.6563 24.5938 24.5469 24.4844 24.4375 24.375 24.3281 24.2813 24.2188 24.1719 24.1094 24.0625 24.0156 23.9688 23.9063 23.8594 23.8125 23.7656 23.7188 23.6563 23.6094 23.5625 23.5156 23.4688 23.4219 23.375 23.3281 23.2813 23.2344 23.1875 22.9844 22.9375 22.8906 22.8438 22.8125 22.7656 22.7188 22.6719 22.6406 22.6094 22.7344 22.8438 22.9375 22.8906 22.8594 22.8125 22.7813 22.7344 22.6875 22.6563 22.6094 22.5781 22.5313 22.5 22 21.9688 21.9375 21.8906 21.8594 21.8281 21.7813 21.75 21.7188 21.8281 21.9688 22.0625 22.0313 22 21.9688 21.9375 21.9063 21.8594 21.8281 21.7969 21.7656 21.7344 21.7031 21.6719 21.2031 21.1719 21.1406 21.1094 21.0781 21.0625 21.0313 21 20.9688 20.9375 20.9219 20.8906 20.8594 20.9531 21.1094 21.2813 21.4375 21.6094 22.875 22.875 22.8438 22.8125 22.7813 22.7656 22.8438 23.0313 23.2188 23.8281 24.0313 24.2344 24.4531 24.4688 24.4531 24.6719 24.8906 25.125 25.7969 26.0313 26.2813 26.5313 26.7813 27.0313 27.2969 27.5625 27.8438 28.1094 28.4063 28.6875 28.9844 29.1406 29.1094 29.3906 29.7031 31.0625 31.0313 31 31.0469 31.3906 32.7188 32.6875 32.6563 32.875 33.2813 34.625 34.5938 34.5625 34.9375 36.2813 36.25 36.3125 36.7813 37.9375 38.4375 38.9688 39.5313 40.0625 40.6563 41.0938 41.125 41.7188 42.75 43 44.7813 44.75 45.0625 65504 65504 65504 65504 65504 65504 65504 65504 65504 65504 65504 65504 65504 65504 65504 65504 65504 65504 65504 65504 65504 65504 65504 65504 65504 65504 65504 65504 65504 65504 65504 65504 65504 65504 65504 65504 65504 65504 65504 65504 65504 65504 65504 65504 65504 65504 65504 65504 65504 65504 65504 65504 65504 65504 65504 65504 65504 65504 65504 65504 65504 65504 65504 65504 65504 65504 65504 65504 65504 65504 65504 65504 65504 65504 65504 65504 65504 65504 65504 65504 65504 65504 65504 65504 65504 65504 65504 65504 65504 65504 65504 65504 65504
65504 65504 65504 65504 65504 65504 65504 65504 65504 65504 65504 65504 65504 65504 65504 65504 65504 65504 65504 65504 65504 65504 65504 65504 65504 65504 65504 65504 65504 65504 65504 65504 65504 65504 65504 65504 65504 65504 65504 65504 38.4063 38.2813 38.1563 38 37.875 37.75 37.7188 37.75 37.8125 37.875 37.8438 37.7188 37.5938 36.6875 36.5625 36.4375 36.3125 36.1875 36.2188 36.2813 36.3125 36.375 36.3125 36.1875 36.0625 35.1875 35.0938 34.9688 34.8438 34.7188 34.625 34.625 34.625 34.5 34.4063 34.2813 34.1563 34.0625 33.9375 33.8438 33.7188 33.625 33.5 33.4063 33.2813 33.1875 33.0625 32.9688 32.8438 32.75 32.6563 32.5313 32.4375 32.3438 32.2188 32.125 32.0313 31.9375 31.8281 31.7344 31.6406 31.3125 31.2188 31.1094 31.0156 30.9219 30.8281 30.7344 30.7031 30.7656 30.6719 30.5781 30.4844 30.3906 30.2969 30.2188 30.125 29.8125 29.7344 29.6406 29.5469 29.4688 29.375 29.4375 29.4219 29.3281 29.25 29.1563 29.0781 29 28.9063 28.8281 28.5469 28.4531 28.375 28.2969 28.2188 28.1406 28.0625 27.9844 28.0156 28.0313 27.9531 27.875 27.7969 27.7188 27.6406 27.5625 27.5 27.4219 27.1563 27.0781 27 26.9375 26.8594 26.7969 26.7344 26.8125 26.7813 26.7031 26.6406 26.5625 26.5 26.4219 26.3594 26.2969 26.2344 25.9688 25.9063 25.8438 25.7813 25.7188 25.6563 25.5938 25.5313 25.4688 25.5 25.5156 25.4688 25.4063 25.3438 25.2813 25.2188 25.1563 25.0938 25.0469 24.9844 24.9219 24.875 24.8125 24.75 24.7031 24.6406 24.5781 24.5313 24.4688 24.4219 24.3594 24.3125 24.2656 24.2031 24.1563 24.0938 24.0469 24 23.9531 23.8906 23.8438 23.7969 23.75 23.7031 23.6406 23.5938 23.5469 23.5 23.4531 23.4063 23.3594 23.3125 23.2656 23.2188 23.1719 22.9688 22.9219 22.875 22.8281 22.7969 22.75 22.7031 22.6563 22.625 22.5938 22.7188 22.8281 22.9219 22.875 22.8438 22.7969 22.7656 22.7188 22.6719 22.6406 22.5938 22.5625 22.5313 22.4844 21.9844 21.9531 21.9219 21.875 21.8438 21.8125 21.7656 21.7344 21.7031 21.8125 21.9531 22.0469 22.0156 21.9844 21.9531 21.9219 21.8906 21.8594 21.8125 21.7813 21.75 21.7188 21.6875 21.6563 21.1875 21.1563 21.125 21.0938 21.0781 21.0469 21.0156 20.9844 20.9531 20.9375 20.9063 20.875 20.8438 20.9375 21.0938 21.2656 21.4219 21.5938 22.8594 22.8594 22.8281 22.7969 22.7656 22.75 22.8281 23.0156 23.2031 23.8125 24.0156 24.2188 24.4375 24.4531 24.4375 24.6563 24.875 25.1094 25.7813 26.0156 26.2656 26.5 26.7656 27.0156 27.2813 27.5469 27.8125 28.0938 28.375 28.6719 28.9688 29.125 29.0938 29.375 29.6875 31.0313 31.0156 30.9844 31.0313 31.375 32.6875 32.6563 32.625 32.8438 33.25 34.5938 34.5625 34.5313 34.9375 36.25 36.25 36.2813 36.7813 37.9063 38.4375 38.9688 39.5 40.0625 40.625 41.0625 41.0938 41.7188 42.8438 43 44.75 44.7188 45.0625 65504 65504 65504 65504 65504 65504 65504 65504 65504 65504 65504 65504 65504 65504 65504 65504 65504 65504 65504 65504 65504 65504 65504 65504 65504 65504 65504 65504 65504 65504 65504 65504 65504 65504 65504 65504 65504 65504 65504 65504 65504 65504 65504 65504 65504 65504 65504 65504 65504 65504 65504 65504 65504 65504 65504 65504 65504 65504 65504 65504 65504 65504 65504 65504 65504 65504 65504 65504 65504 65504 65504 65504 65504 65504 65504 65504 65504 65504 65504 65504 65504 65504 65504 65504 65504 65504 65504 65504 65504 65504 65504 65504 65504
65504 65504 65504 65504 65504 65504 65504 65504 65504 65504 65504 65504 65504 65504 65504 65504 65504 65504 65504 65504 65504 65504 65504 65504 65504 65504 65504 65504 65504 65504 65504 65504 65504 65504 65504 65504 65504 65504 65504 65504 38.4063 38.25 38.125 38 37.8438 37.7188 37.6875 37.75 37.7813 37.8438 37.8438 37.7188 37.5625 36.6875 36.5625 36.4063 36.2813 36.1563 36.1875 36.25 36.3125 36.3438 36.2813 36.1563 36.0313 35.1875 35.0625 34.9375 34.8438 34.7188 34.5938 34.5938 34.625 34.5 34.375 34.2813 34.1563 34.0313 33.9375 33.8125 33.7188 33.5938 33.5 33.375 33.2813 33.1563 33.0625 32.9375 32.8438 32.75 32.625 32.5313 32.4063 32.3125 32.2188 32.125 32 31.9219 31.8125 31.7188 31.625 31.2969 31.2031 31.0938 31 30.9063 30.8125 30.7188 30.6719 30.7344 30.6563 30.5625 30.4688 30.375 30.2813 30.2031 30.1094 29.7969 29.7188 29.625 29.5313 29.4531 29.3594 29.4219 29.4063 29.3125 29.2344 29.1406 29.0625 28.9844 28.8906 28.8125 28.5313 28.4375 28.3594 28.2813 28.2031 28.125 28.0469 27.9688 28 28.0156 27.9375 27.8594 27.7813 27.7031 27.625 27.5469 27.4844 27.4063 27.1406 27.0625 26.9844 26.9219 26.8438 26.7813 26.7188 26.7969 26.7656 26.6875 26.625 26.5469 26.4844 26.4219 26.3438 26.2813 26.2188 25.9531 25.8906 25.8281 25.7656 25.7031 25.6406 25.5781 25.5156 25.4531 25.4844 25.5 25.4531 25.3906 25.3281 25.2656 25.2031 25.1406 25.0781 25.0313 24.9688 24.9063 24.8594 24.7969 24.7344 24.6875 24.625 24.5625 24.5156 24.4531 24.4063 24.3438 24.2969 24.25 24.1875 24.1406 24.0781 24.0313 23.9844 23.9375 23.875 23.8281 23.7813 23.7344 23.6875 23.625 23.5781 23.5313 23.4844 23.4375 23.3906 23.3438 23.2969 23.25 23.2031 23.1563 22.9531 22.9063 22.8594 22.8125 22.7813 22.7344 22.6875 22.6406 22.6094 22.5781 22.6875 22.8125 22.9063 22.8594 22.8281 22.7813 22.75 22.7031 22.6563 22.625 22.5781 22.5469 22.5156 22.4688 21.9688 21.9375 21.9063 21.8594 21.8281 21.7969 21.75 21.7188 21.6875 21.7969 21.9375 22.0313 22 21.9688 21.9375 21.9063 21.875 21.8438 21.7969 21.7656 21.7344 21.7031 21.6719 21.6406 21.1719 21.1406 21.1094 21.0781 21.0625 21.0313 21 20.9688 20.9375 20.9219 20.8906 20.8594 20.8281 20.9219 21.0781 21.25 21.4063 21.5781 22.8438 22.8438 22.8125 22.7813 22.75 22.7344 22.8125 23 23.1875 23.7969 24 24.2031 24.4219 24.4375 24.4219 24.6406 24.8594 25.0938 25.7656 26 26.25 26.4844 26.75 27 27.2656 27.5313 27.7969 28.0781 28.3594 28.6563 28.9531 29.1094 29.0781 29.3594 29.6719 30.2813 30.9844 30.9688 31 31.3594 32.6563 32.625 32.625 32.8438 33.2188 34.5625 34.5313 34.5313 34.9063 36.25 36.2188 36.2813 36.75 37.9063 38.4063 38.9375 39.4688 40.0313 40.5938 41.0625 41.0625 41.6875 42.9375 42.9688 44.0313 44.6875 45.0313 65504 65504 65504 65504 65504 65504 65504 65504 65504 65504 65504 65504 65504 65504 65504 65504 65504 65504 65504 65504 65504 65504 65504 65504 65504 65504 65504 65504 65504 65504 65504 65504 65504 65504 65504 65504 65504 65504 65504 65504 65504 65504 65504 65504 65504 65504 65504 65504 65504 65504 65504 65504 65504 65504 65504 65504 65504 65504 65504 65504 65504 65504 65504 65504 65504 65504 65504 65504 65504 65504 65504 65504 65504 65504 65504 65504 65504 65504 65504 65504 65504 65504 65504 65504 65504 65504 65504 65504 65504 65504 65504 65504 65504
65504 65504 65504 65504 65504 65504 65504 65504 65504 65504 65504 65504 65504 65504 65504 65504 65504 65504 65504 65504 65504 65504 65504 65504 65504 65504 65504 65504 65504 65504 65504 65504 65504 65504 65504 65504 65504 65504 65504 65504 38.375 38.25 38.125 37.9688 37.8438 37.7188 37.6875 37.7188 37.7813 37.8125 37.8125 37.6875 37.5625 36.6563 36.5313 36.4063 36.2813 36.1563 36.1875 36.2188 36.2813 36.3438 36.2813 36.1563 36.0313 35.1875 35.0625 34.9375 34.8125 34.6875 34.5938 34.5938 34.5938 34.5 34.375 34.25 34.1563 34.0313 33.9063 33.8125 33.6875 33.5938 33.4688 33.375 33.25 33.1563 33.0313 32.9375 32.8125 32.7188 32.625 32.5 32.4063 32.3125 32.1875 32.0938 32 31.9063 31.7969 31.7031 31.6094 31.2813 31.1875 31.0938 30.9844 30.8906 30.7969 30.7031 30.6563 30.7188 30.6406 30.5469 30.4531 30.3594 30.2813 30.1875 30.0938 29.7813 29.7031 29.6094 29.5156 29.4375 29.3438 29.4063 29.3906 29.2969 29.2188 29.125 29.0469 28.9688 28.875 28.7969 28.5156 28.4219 28.3438 28.2656 28.1875 28.1094 28.0313 27.9531 27.9688 28 27.9219 27.8438 27.7656 27.6875 27.6094 27.5469 27.4688 27.3906 27.125 27.0469 26.9688 26.9063 26.8281 26.7656 26.7031 26.7813 26.75 26.6719 26.6094 26.5313 26.4688 26.4063 26.3281 26.2656 26.2031 25.9375 25.875 25.8125 25.75 25.6875 25.625 25.5625 25.5 25.4375 25.4688 25.5 25.4375 25.375 25.3125 25.25 25.1875 25.125 25.0625 25.0156 24.9531 24.8906 24.8438 24.7813 24.7188 24.6719 24.6094 24.5625 24.5 24.4375 24.3906 24.3438 24.2813 24.2344 24.1719 24.125 24.0781 24.0156 23.9688 23.9219 23.8594 23.8125 23.7656 23.7188 23.6719 23.6094 23.5625 23.5156 23.4688 23.4219 23.375 23.3281 23.2813 23.2344 23.1875 23.1406 22.9375 22.8906 22.8438 22.7969 22.7656 22.7188 22.6719 22.625 22.5938 22.5625 22.6719 22.7969 22.8906 22.8438 22.8125 22.7656 22.7344 22.6875 22.6563 22.6094 22.5781 22.5313 22.5 22.4531 21.9531 21.9219 21.8906 21.8438 21.8125 21.7813 21.75 21.7031 21.6719 21.7813 21.9219 22.0156 21.9844 21.9531 21.9219 21.8906 21.8594 21.8281 21.7969 21.75 21.7188 21.6875 21.6563 21.625 21.1563 21.125 21.0938 21.0781 21.0469 21.0156 20.9844 20.9531 20.9219 20.9063 20.875 20.8438 20.8281 20.9063 21.0781 21.2344 21.3906 21.5625 22.8281 22.8281 22.7969 22.7656 22.7344 22.7188 22.7969 22.9844 23.1875 24.0469 24.0469 24.1875 24.4063 24.4219 24.4063 24.625 24.8438 25.0781 25.75 25.9844 26.2344 26.4688 26.7344 26.9844 27.25 27.5156 27.7813 28.0625 28.3438 28.6406 28.9375 29.0781 29.0625 29.3438 29.6563 30.2813 30.5938 30.9375 30.9844 31.3438 32.6563 32.625 32.5938 32.8125 33.2188 34.5625 34.5313 34.5 34.875 36.2188 36.1875 36.25 36.7188 37.875 38.4063 38.9063 39.4688 40.0313 40.5938 41.0313 41.0625 41.6563 42.9063 42.9375 44.0313 44.6563 45 65504 65504 65504 65504 65504 65504 65504 65504 65504 65504 65504 65504 65504 65504 65504 65504 65504 65504 65504 65504 65504 65504 65504 65504 65504 65504 65504 65504 65504 65504 65504 65504 65504 65504 65504 65504 65504 65504 65504 65504 65504 65504 65504 65504 65504 65504 65504 65504 65504 65504 65504 65504 65504 65504 65504 65504 65504 65504 65504 65504 65504 65504 65504 65504 65504 65504 65504 65504 65504 65504 65504 65504 65504 65504 65504 65504 65504 65504 65504 65504 65504 65504 65504 65504 65504 65504 65504 65504 65504 65504 65504 65504 65504
65504 65504 65504 65504 65504 65504 65504 65504 65504 65504 65504 65504 65504 65504 65504 65504 65504 65504 65504 65504 65504 65504 65504 65504 65504 65504 65504 65504 65504 65504 65504 65504 65504 65504 65504 65504 65504 65504 65504 65504 38.375 38.25 38.0938 37.9688 37.8438 37.6875 37.6563 37.7188 37.75 37.8125 37.8125 37.6875 37.5313 36.6563 36.5313 36.4063 36.2813 36.1563 36.1563 36.2188 36.2813 35.7813 35.6563 35.5313 35.4063 35.1563 35.0313 34.9375 34.8125 34.6875 34.5625 34.5625 34.5938 34.4688 34.3438 34.25 34.125 34.0313 33.9063 33.7813 33.6875 33.5625 33.4688 33.3438 33.25 33.125 33.0313 32.9063 32.8125 32.7188 32.5938 32.5 32.4063 32.2813 32.1875 32.0938 31.9844 31.8906 31.7969 31.6875 31.5938 31.2656 31.1719 31.0781 30.9688 30.875 30.7813 30.6875 30.6406 30.7031 30.625 30.5313 30.4375 30.3438 30.2656 30.1719 30.0781 29.7813 29.6875 29.5938 29.5156 29.4219 29.3281 29.375 29.375 29.2813 29.2031 29.125 29.0313 28.9531 28.8594 28.7813 28.5 28.4063 28.3281 28.25 28.1719 28.0938 28.0156 27.9375 27.9531 27.9844 27.9063 27.8281 27.75 27.6719 27.5938 27.5313 27.4531 27.375 27.1094 27.0313 26.9688 26.8906 26.8125 26.75 26.6875 26.7656 26.7344 26.6563 26.5938 26.5156 26.4531 26.3906 26.3125 26.25 26.1875 25.9219 25.8594 25.7969 25.7344 25.6719 25.6094 25.5469 25.4844 25.4219 25.4375 25.4844 25.4219 25.3594 25.2969 25.2344 25.1719 25.1094 25.0469 25 24.9375 24.875 24.8281 24.7656 24.7031 24.6563 24.5938 24.5469 24.4844 24.4219 24.375 24.3281 24.2656 24.2188 24.1563 24.1094 24.0625 24 23.9531 23.9063 23.8438 23.7969 23.75 23.7031 23.6563 23.6094 23.5469 23.5 23.4531 23.4063 23.3594 23.3125 23.2656 23.2188 23.1719 23.125 22.9219 22.875 22.8281 22.7813 22.75 22.7031 22.6563 22.6094 22.5781 22.5469 22.6563 22.7813 22.875 22.8281 22.7969 22.75 22.7188 22.6719 22.6406 22.5938 22.5625 22.5156 22.4844 22.4375 21.9375 21.9063 21.875 21.8281 21.7969 21.7656 21.7344 21.6875 21.6563 21.7656 21.9063 22 21.9688 21.9375 21.9063 21.875 21.8438 21.8125 21.7813 21.75 21.7188 21.6719 21.6563 21.625 21.1406 21.1094 21.0938 21.0625 21.0313 21 20.9688 20.9375 20.9219 20.8906 20.8594 20.8281 20.8125 20.9063 21.0625 21.2188 21.375 21.5469 22.8125 22.8125 22.7813 22.75 22.7188 22.7031 22.7813 22.9688 23.1719 24.3438 24.3594 24.3594 24.3906 24.4063 24.3906 24.6094 24.8281 25.0625 25.7344 25.9688 26.2188 26.4531 26.7188 26.9688 27.2344 27.5 27.7656 28.0469 28.3281 28.625 28.9219 29.0625 29.0313 29.3281 29.6406 30.4844 30.6563 30.9219 30.9688 31.3281 32.625 32.5938 32.5625 32.8125 33.1875 34.5313 34.5 34.4688 34.875 36.1875 36.1563 36.25 36.7188 37.8438 38.375 38.9063 39.4375 40 40.5625 41 41.0313 41.6563 42.875 42.9375 44.375 44.625 45 65504 65504 65504 65504 65504 65504 65504 65504 65504 65504 65504 65504 65504 65504 65504 65504 65504 65504 65504 65504 65504 65504 65504 65504 65504 65504 65504 65504 65504 65504 65504 65504 65504 65504 65504 65504 65504 65504 65504 65504 65504 65504 65504 65504 65504 65504 65504 65504 65504 65504 65504 65504 65504 65504 65504 65504 65504 65504 65504 65504 65504 65504 65504 65504 65504 65504 65504 65504 65504 65504 65504 65504 65504 65504 65504 65504 65504 65504 65504 65504 65504 65504 65504 65504 65504 65504 65504 65504 65504 65504 65504 65504 65504
65504 65504 65504 65504 65504 65504 65504 65504 65504 65504 65504 65504 65504 65504 65504 65504 65504 65504 65504 65504 65504 65504 65504 65504 65504 65504 65504 65504 65504 65504 65504 65504 65504 65504 65504 65504 65504 65504 65504 65504 65504 38.2188 38.0938 37.9688 37.8125 37.6875 37.625 37.6875 37.75 37.7813 37.8125 37.6563 37.5313 36.625 36.5 36.375 36.25 36.125 36.1563 36.0313 35.9063 35.7813 35.6563 35.5313 35.4375 35.1563 35.0313 34.9063 34.7813 34.6875 34.5625 34.5625 34.5625 34.4688 34.3438 34.2188 34.125 34 33.875 33.7813 33.6563 33.5625 33.4375 33.3438 33.2188 33.125 33 32.9063 32.8125 32.6875 32.5938 32.4688 32.375 32.2813 32.1875 32.0625 31.9844 31.875 31.7813 31.6719 31.5781 31.25 31.1563 31.0625 30.9688 30.8594 30.7656 30.6719 30.625 30.6875 30.6094 30.5156 30.4219 30.3438 30.25 30.1563 30.0625 29.7656 29.6719 29.5781 29.5 29.4063 29.3281 29.3594 29.3594 29.2656 29.1875 29.1094 29.0156 28.9375 28.8594 28.7656 28.4844 28.4063 28.3125 28.2344 28.1563 28.0781 28 27.9219 27.9375 27.9688 27.8906 27.8125 27.7344 27.6563 27.5781 27.5156 27.4375 27.3594 27.0938 27.0156 26.9531 26.875 26.7969 26.7344 26.6719 26.75 26.7188 26.6406 26.5781 26.5 26.4375 26.375 26.2969 26.2344 26.1719 25.9219 25.8438 25.7813 25.7188 25.6563 25.5938 25.5313 25.4688 25.4063 25.4219 25.4688 25.4063 25.3438 25.2813 25.2188 25.1563 25.0938 25.0469 24.9844 24.9219 24.8594 24.8125 24.75 24.6875 24.6406 24.5781 24.5313 24.4688 24.4219 24.3594 24.3125 24.25 24.2031 24.1406 24.0938 24.0469 23.9844 23.9375 23.8906 23.8281 23.7813 23.7344 23.6875 23.6406 23.5938 23.5313 23.4844 23.4375 23.3906 23.3438 23.2969 23.25 23.2031 23.1563 23.1094 22.9063 22.8594 22.8125 22.7813 22.7344 22.6875 22.6406 22.6094 22.5625 22.5313 22.6406 22.7656 22.8594 22.8281 22.7813 22.7344 22.7031 22.6563 22.625 22.5781 22.5469 22.5 22.4688 22.4219 21.9375 21.8906 21.8594 21.8281 21.7813 21.75 21.7188 21.6875 21.6406 21.75 21.8906 22 21.9531 21.9219 21.8906 21.8594 21.8281 21.7969 21.7656 21.7344 21.7031 21.6719 21.6406 21.6094 21.125 21.1094 21.0781 21.0469 21.0156 20.9844 20.9531 20.9219 20.9063 20.875 20.8438 20.8125 20.7969 20.8906 21.0469 21.2031 21.3594 21.5313 22.7969 22.7969 22.7656 22.7344 22.7188 22.6875 22.7656 22.9531 23.1563 24.5 24.4688 24.4375 24.4219 24.3906 24.375 24.5938 24.8125 25.0469 25.7188 25.9531 26.2031 26.4375 26.6875 26.9531 27.2188 27.4844 27.75 28.0313 28.3125 28.6094 28.9063 29.0469 29.0156 29.3125 29.625 30.4688 30.8125 30.9063 30.9531 31.3125 32.5938 32.5625 32.5625 32.7813 33.1875 34.5 34.4688 34.4375 34.8438 36.1563 36.1563 36.2188 36.6875 37.8438 38.3438 38.875 39.4375 39.9688 40.5625 40.9688 41.0313 41.625 42.8438 42.9063 44.3438 44.625 44.9688 65504 65504 65504 65504 65504 65504 65504 65504 65504 65504 65504 65504 65504 65504 65504 65504 65504 65504 65504 65504 65504 65504 65504 65504 65504 65504 65504 65504 65504 65504 65504 65504 65504 65504 65504 65504 65504 65504 65504 65504 65504 65504 65504 65504 65504 65504 65504 65504 65504 65504 65504 65504 65504 65504 65504 65504 65504 65504 65504 65504 65504 65504 65504 65504 65504 65504 65504 65504 65504 65504 65504 65504 65504 65504 65504 65504 65504 65504 65504 65504 65504 65504 65504 65504 65504 65504 65504 65504 65504 65504 65504 65504 65504
65504 65504 65504 65504 65504 65504 65504 65504 65504 65504 65504 65504 65504 65504 65504 65504 65504 65504 65504 65504 65504 65504 65504 65504 65504 65504 65504 65504 65504 65504 65504 65504 65504 65504 65504 65504 65504 65504 65504 65504 65504 38.2188 38.0938 37.9375 37.8125 37.6875 37.625 37.6563 37.4063 37.2813 37.1563 37.0313 36.9063 36.625 36.5 36.375 36.25 36.125 36.125 36.0625 36 35.875 35.75 35.625 35.5 35.125 35.0313 34.9063 34.7813 34.6563 34.5313 34.5313 34.5625 34.4375 34.3438 34.2188 34.0938 34 33.875 33.75 33.6563 33.5313 33.4375 33.3125 33.2188 33.0938 33 32.9063 32.7813 32.6875 32.5625 32.4688 32.375 32.25 32.1563 32.0625 31.9688 31.8594 31.7656 31.6563 31.5625 31.4688 31.1406 31.0469 30.9531 30.8594 30.75 30.6563 30.6094 30.6719 30.5938 30.5156 30.4219 30.3281 30.2344 30.1406 30.0469 29.75 29.6563 29.5625 29.4844 29.3906 29.3125 29.3438 29.3438 29.2656 29.1719 29.0938 29 28.9219 28.8438 28.75 28.4688 28.3906 28.2969 28.2188 28.1406 28.0625 27.9844 27.9063 27.9219 27.9531 27.875 27.7969 27.7188 27.6406 27.5781 27.5 27.4219 27.3438 27.0781 27 26.9375 26.8594 26.7813 26.7188 26.6563 26.7344 26.7031 26.625 26.5625 26.4844 26.4219 26.3594 26.2813 26.2188 26.1563 25.9063 25.8281 25.7656 25.7031 25.6406 25.5781 25.5156 25.4531 25.3906 25.4063 25.4531 25.3906 25.3281 25.2656 25.2031 25.1406 25.0781 25.0313 24.9688 24.9063 24.8438 24.7969 24.7344 24.6719 24.625 24.5625 24.5156 24.4531 24.4063 24.3438 24.2969 24.2344 24.1875 24.125 24.0781 24.0313 23.9688 23.9219 23.875 23.8281 23.7656 23.7188 23.6719 23.625 23.5781 23.5313 23.4688 23.4219 23.375 23.3281 23.2813 23.2344 23.1875 23.1406 23.1094 22.8906 22.8438 22.7969 22.7656 22.7188 22.6719 22.625 22.5938 22.5469 22.5156 22.625 22.75 22.8438 22.8125 22.7656 22.7188 22.6875 22.6406 22.6094 22.5625 22.5313 22.4844 22.4531 22.4063 21.9219 21.875 21.8438 21.8125 21.7656 21.7344 21.7031 21.6719 21.625 21.7344 21.875 21.9844 21.9375 21.9063 21.875 21.8438 21.8125 21.7813 21.75 21.7188 21.6875 21.6563 21.625 21.5938 21.125 21.0938 21.0625 21.0313 21 20.9688 20.9375 20.9219 20.8906 20.8594 20.8281 20.8125 20.7813 20.875 21.0313 21.1875 21.3594 21.5156 22.7813 22.7813 22.75 22.7188 22.7031 22.6719 22.75 22.9375 23.1406 24.4844 24.4531 24.4219 24.4063 24.375 24.3594 24.5781 24.7969 25.0313 25.7031 25.9375 26.1875 26.4219 26.6719 26.9375 27.2031 27.4688 27.7344 28.0156 28.2969 28.5938 28.8906 29.0313 29 29.2969 29.6094 30.4531 30.7813 30.8906 30.9375 31.2813 31.9531 32.5625 32.5313 32.7813 33.1563 34.4688 34.4688 34.4375 34.8438 36.1563 36.125 36.1875 36.6875 37.8125 38.3438 38.875 39.4063 39.9688 40.5313 40.9375 41 41.625 42.8125 42.9063 44.3125 44.5938 44.9688 65504 65504 65504 65504 65504 65504 65504 65504 65504 65504 65504 65504 65504 65504 65504 65504 65504 65504 65504 65504 65504 65504 65504 65504 65504 65504 65504 65504 65504 65504 65504 65504 65504 65504 65504 65504 65504 65504 65504 65504 65504 65504 65504 65504 65504 65504 65504 65504 65504 65504 65504 65504 65504 65504 65504 65504 65504 65504 65504 65504 65504 65504 65504 65504 65504 65504 65504 65504 65504 65504 65504 65504 65504 65504 65504 65504 65504 65504 65504 65504 65504 65504 65504 65504 65504 65504 65504 65504 65504 65504 65504 65504 65504
65504 65504 65504 65504 65504 65504 65504 65504 65504 65504 65504 65504 65504 65504 65504 65504 65504 65504 65504 65504 65504 65504 65504 65504 65504 65504 65504 65504 65504 65504 65504 65504 65504 65504 65504 65504 65504 65504 65504 65504 65504 38.2188 38.0625 37.9375 37.7813 37.6563 37.5938 37.5313 37.4063 37.2813 37.1563 37 36.9063 36.625 36.5 36.3438 36.2188 36.0938 36.0938 36.125 36 35.875 35.75 35.625 35.5 35.375 35 34.875 34.7813 34.6563 34.5313 34.5 34.5625 34.4375 34.3125 34.2188 34.0938 33.9688 33.875 33.75 33.625 33.5313 33.4063 33.3125 33.1875 33.0938 33 32.875 32.7813 32.6563 32.5625 32.4688 32.3438 32.25 32.1563 32.0313 31.9531 31.8438 31.75 31.6563 31.5469 31.4531 31.125 31.0313 30.9375 30.8438 30.75 30.6563 30.5781 30.6406 30.5938 30.5 30.4063 30.3125 30.2188 30.125 30.0313 29.7344 29.6406 29.5469 29.4688 29.375 29.2969 29.3281 29.3281 29.25 29.1563 29.0781 28.9844 28.9063 28.8281 28.7344 28.4531 28.375 28.2969 28.2031 28.125 28.0469 27.9688 27.8906 27.9063 27.9375 27.8594 27.7813 27.7031 27.625 27.5625 27.4844 27.4063 27.3281 27.0625 26.9844 26.9219 26.8438 26.7813 26.7031 26.6406 26.7188 26.6875 26.6094 26.5469 26.4688 26.4063 26.3438 26.2656 26.2031 26.1563 25.8906 25.8281 25.75 25.6875 25.625 25.5625 25.5 25.4375 25.375 25.3906 25.4375 25.375 25.3125 25.25 25.1875 25.125 25.0625 25.0156 24.9531 24.8906 24.8281 24.7813 24.7188 24.6563 24.6094 24.5469 24.5 24.4375 24.3906 24.3281 24.2813 24.2188 24.1719 24.1094 24.0625 24.0156 23.9531 23.9063 23.8594 23.8125 23.75 23.7031 23.6563 23.6094 23.5625 23.5156 23.4688 23.4063 23.3594 23.3125 23.2656 23.2188 23.1719 23.1406 23.0938 22.875 22.8281 22.7813 22.75 22.7031 22.6563 22.6094 22.5781 22.5313 22.5 22.6094 22.7344 22.8281 22.7969 22.75 22.7031 22.6719 22.625 22.5938 22.5469 22.5156 22.4688 22.4375 22.3906 21.9063 21.8594 21.8281 21.7969 21.75 21.7188 21.6875 21.6563 21.6094 21.7188 21.8594 21.9688 21.9375 21.8906 21.8594 21.8281 21.7969 21.7656 21.7344 21.7031 21.6719 21.6406 21.6094 21.5781 21.1094 21.0781 21.0469 21.0156 20.9844 20.9531 20.9375 20.9063 20.875 20.8438 20.8125 20.7969 20.7656 20.8594 21.0156 21.1719 21.3438 21.5 22.7656 22.7656 22.7344 22.7031 22.6875 22.6563 22.7344 22.9375 23.125 24.4688 24.4375 24.4063 24.3906 24.3594 24.3438 24.5625 24.7813 25.0156 25.6875 25.9219 26.1719 26.4063 26.6563 26.9219 27.1875 27.4531 27.7188 28 28.2813 28.5781 28.8594 29 28.9844 29.2813 29.5938 30.4375 30.7656 30.8594 30.9219 31.2656 31.9531 32.2813 32.5 32.75 33.1563 34.4688 34.4375 34.4063 34.8125 36.125 36.0938 36.1875 36.6563 37.8125 38.3125 38.8438 39.375 39.9375 40.5 40.9063 41 41.5938 42.8125 42.875 44.3125 44.5625 44.9375 65504 65504 65504 65504 65504 65504 65504 65504 65504 65504 65504 65504 65504 65504 65504 65504 65504 65504 65504 65504 65504 65504 65504 65504 65504 65504 65504 65504 65504 65504 65504 65504 65504 65504 65504 65504 65504 65504 65504 65504 65504 65504 65504 65504 65504 65504 65504 65504 65504 65504 65504 65504 65504 65504 65504 65504 65504 65504 65504 65504 65504 65504 65504 65504 65504 65504 65504 65504 65504 65504 65504 65504 65504 65504 65504 65504 65504 65504 65504 65504 65504 65504 65504 65504 65504 65504 65504 65504 65504 65504 65504 65504 65504
65504 65504 65504 65504 65504 65504 65504 65504 65504 65504 65504 65504 65504 65504 65504 65504 65504 65504 65504 65504 65504 65504 65504 65504 65504 65504 65504 65504 65504 65504 65504 65504 65504 65504 65504 65504 65504 65504 65504 65504 65504 38.1875 38.0625 37.9063 37.7813 37.6563 37.5938 37.625 37.5313 37.375 37.25 37.125 37 36.875 36.4688 36.3438 36.2188 36.0938 36.0938 36.0938 35.9688 35.8438 35.7188 35.5938 35.5 35.375 35 34.875 34.75 34.625 34.5313 34.5 34.5313 34.4063 34.3125 34.1875 34.0625 33.9688 33.8438 33.75 33.625 33.5313 33.4063 33.3125 33.1875 33.0938 32.9688 32.875 32.75 32.6563 32.5625 32.4375 32.3438 32.25 32.125 32.0313 31.9375 31.8438 31.7344 31.6406 31.5313 31.4375 31.1094 31.0156 30.9219 30.8281 30.7344 30.6406 30.5625 30.625 30.5781 30.4844 30.3906 30.2969 30.2031 30.1094 30.0156 29.7188 29.625 29.5469 29.4531 29.3594 29.2813 29.3125 29.3125 29.2344 29.1406 29.0625 28.9688 28.8906 28.8125 28.7344 28.4375 28.3594 28.2813 28.2031 28.1094 28.0313 27.9531 27.875 27.8906 27.9219 27.8438 27.7656 27.6875 27.625 27.5469 27.4688 27.3906 27.3125 27.0469 26.9688 26.9063 26.8281 26.7656 26.6875 26.625 26.7031 26.6719 26.6563 26.625 26.6094 26.5781 26.5625 26.5469 26.5156 26.4844 25.875 25.8125 25.7344 25.6719 25.6094 25.5469 25.4844 25.4219 25.3594 25.375 25.4219 25.3594 25.2969 25.2344 25.1719 25.1094 25.0625 25 24.9375 24.875 24.8281 24.7656 24.7031 24.6563 24.5938 24.5313 24.4844 24.4219 24.375 24.3125 24.2656 24.2031 24.1563 24.1094 24.0469 24 23.9531 23.8906 23.8438 23.7969 23.7344 23.6875 23.6406 23.5938 23.5469 23.5 23.4531 23.4063 23.3594 23.2969 23.25 23.2188 23.1719 23.125 23.0781 22.8594 22.8125 22.7813 22.7344 22.6875 22.6406 22.6094 22.5625 22.5156 22.4844 22.5938 22.7188 22.8125 22.7813 22.7344 22.7031 22.6563 22.6094 22.5781 22.5313 22.5 22.4531 22.4219 22.3906 21.8906 21.8438 21.8125 21.7813 21.75 21.7031 21.6719 21.6406 21.6094 21.7188 21.8438 21.9531 21.9219 21.875 21.8438 21.8125 21.7813 21.75 21.7188 21.6875 21.6563 21.625 21.5938 21.5625 21.0938 21.0625 21.0313 21 20.9688 20.9375 20.9219 20.8906 20.8594 20.8281 20.8125 20.7813 20.75 20.8438 21 21.1563 21.3281 21.4844 22.75 22.75 22.7188 22.6875 22.6719 22.6406 22.7344 22.9219 23.1094 24.4531 24.4219 24.3906 24.375 24.3438 24.3281 24.5469 24.7656 25 25.6719 25.9063 26.1563 26.3906 26.6563 26.9063 27.1719 27.4375 27.7031 27.9844 28.2656 28.5625 28.8438 28.9844 28.9688 29.2656 29.5781 30.4219 30.75 30.8438 30.9063 31.25 32.1563 32.3438 32.5 32.75 33.125 34.4375 34.4063 34.375 34.8125 36.0938 36.0625 36.1563 36.6563 37.7813 38.3125 38.8125 39.375 39.9375 40.5 40.9063 40.9688 41.5938 42.7813 42.8438 44.2813 44.5313 44.9063 65504 65504 65504 65504 65504 65504 65504 65504 65504 65504 65504 65504 65504 65504 65504 65504 65504 65504 65504 65504 65504 65504 65504 65504 65504 65504 65504 65504 65504 65504 65504 65504 65504 65504 65504 65504 65504 65504 65504 65504 65504 65504 65504 65504 65504 65504 65504 65504 65504 65504 65504 65504 65504 65504 65504 65504 65504 65504 65504 65504 65504 65504 65504 65504 65504 65504 65504 65504 65504 65504 65504 65504 65504 65504 65504 65504 65504 65504 65504 65504 65504 65504 65504 65504 65504 65504 65504 65504 65504 65504 65504 65504 65504
65504 65504 65504 65504 65504 65504 65504 65504 65504 65504 65504 65504 65504 65504 65504 65504 65504 65504 65504 65504 65504 65504 65504 65504 65504 65504 65504 65504 65504 65504 65504 65504 65504 65504 65504 65504 65504 65504 65504 65504 65504 38.1875 38.0313 37.9063 37.7813 37.625 37.5625 37.5938 37.5 37.375 37.25 37.125 36.9688 36.8438 36.4688 36.3438 36.2188 36.0938 36.0625 36.0938 35.9688 35.8438 35.7188 35.5938 35.4688 35.3438 34.9688 34.875 34.75 34.625 34.5 34.4688 34.5313 34.4063 34.2813 34.1875 34.0625 33.9375 33.8438 33.7188 33.625 33.5 33.4063 33.2813 33.1875 33.0625 32.9688 32.8438 32.75 32.625 32.5313 32.4375 32.3125 32.2188 32.125 32.0313 31.9219 31.8281 31.7188 31.625 31.5313 31.4219 31.1094 31 30.9063 30.8125 30.7188 30.625 30.5469 30.6094 30.5625 30.4688 30.375 30.2813 30.1875 30.0938 30.0156 29.7031 29.6094 29.5313 29.4375 29.3594 29.2656 29.2969 29.2969 29.2188 29.125 29.0469 28.9688 28.875 28.7969 28.7188 28.4219 28.3438 28.2656 28.1875 28.1094 28.0313 27.9375 27.8594 27.875 27.9063 27.8281 27.75 27.6875 27.6094 27.5313 27.4531 27.375 27.2969 27.2344 26.9688 26.8906 26.8125 26.75 26.6719 26.6094 26.6719 26.75 26.8438 26.875 26.8125 26.7344 26.6719 26.5938 26.5313 26.4688 25.8594 25.7969 25.7344 25.6563 25.5938 25.5313 25.4688 25.4063 25.3438 25.3594 25.4063 25.3438 25.2813 25.2188 25.1563 25.0938 25.0469 24.9844 24.9219 24.8594 24.8125 24.75 24.6875 24.6406 24.5781 24.5156 24.4688 24.4063 24.3594 24.2969 24.25 24.1875 24.1406 24.0938 24.0313 23.9844 23.9375 23.875 23.8281 23.7813 23.7344 23.6719 23.625 23.5781 23.5313 23.4844 23.4375 23.3906 23.3438 23.2969 23.25 23.2031 23.1563 23.1094 23.0625 22.8438 22.8125 22.7656 22.7188 22.6719 22.625 22.5938 22.5469 22.5 22.4688 22.5781 22.7031 22.8125 22.7656 22.7188 22.6875 22.6406 22.6094 22.5625 22.5156 22.4844 22.4375 22.4063 22.375 21.875 21.8438 21.7969 21.7656 21.7344 21.6875 21.6563 21.625 21.5938 21.7031 21.8281 21.9375 21.9063 21.875 21.8281 21.7969 21.7656 21.7344 21.7031 21.6719 21.6406 21.6094 21.5781 21.5469 21.0781 21.0469 21.0156 20.9844 20.9531 20.9375 20.9063 20.875 20.8438 20.8281 20.7969 20.7656 20.7344 20.8281 20.9844 21.1563 21.3125 21.4844 22.75 22.7344 22.7031 22.6719 22.6563 22.625 22.7188 22.9063 23.0938 24.4375 24.4063 24.375 24.3594 24.3281 24.3125 24.5313 24.7656 24.9844 25.6563 25.8906 26.1406 26.375 26.6406 26.8906 27.1563 27.4219 27.6875 27.9688 28.25 28.5469 28.8281 28.9688 28.9375 29.25 29.5625 30.4063 30.7344 30.8281 30.8906 31.2344 32.1563 32.5 32.4688 32.7188 33.125 34.4063 34.4063 34.375 34.7813 36.0938 36.0625 36.1563 36.625 37.7813 38.2813 38.8125 39.3438 39.9063 40.4688 40.875 40.9375 41.5625 42.75 42.8438 44.2813 44.5 44.9063 65504 65504 65504 65504 65504 65504 65504 65504 65504 65504 65504 65504 65504 65504 65504 65504 65504 65504 65504 65504 65504 65504 65504 65504 65504 65504 65504 65504 65504 65504 65504 65504 65504 65504 65504 65504 65504 65504 65504 65504 65504 65504 65504 65504 65504 65504 65504 65504 65504 65504 65504 65504 65504 65504 65504 65504 65504 65504 65504 65504 65504 65504 65504 65504 65504 65504 65504 65504 65504 65504 65504 65504 65504 65504 65504 65504 65504 65504 65504 65504 65504 65504 65504 65504 65504 65504 65504 65504 65504 65504 65504 65504 65504
65504 65504 65504 65504 65504 65504 65504 65504 65504 65504 65504 65504 65504 65504 65504 65504 65504 65504 65504 65504 65504 65504 65504 65504 65504 65504 65504 65504 65504 65504 65504 65504 65504 65504 65504 65504 65504 65504 65504 65504 65504 38.1563 38.0313 37.9063 37.75 37.625 37.5313 37.5938 37.5 37.375 37.2188 37.0938 36.9688 36.8438 36.4375 36.3125 36.1875 36.0625 36.0625 36.0938 35.9688 35.8438 35.7188 35.5938 35.4688 35.3438 34.9688 34.8438 34.7188 34.625 34.5 34.4688 34.5 34.4063 34.2813 34.1563 34.0625 33.9375 33.8125 33.7188 33.5938 33.5 33.375 33.2813 33.1563 33.0625 32.9375 32.8438 32.7188 32.625 32.5313 32.4063 32.3125 32.2188 32.0938 32 31.9063 31.8125 31.7031 31.6094 31.5156 31.4063 31.0938 30.9844 30.8906 30.7969 30.7031 30.6094 30.5313 30.5938 30.5469 30.4531 30.3594 30.2656 30.1719 30.0938 30 29.6875 29.6094 29.5156 29.4219 29.3438 29.25 29.2656 29.2969 29.2031 29.125 29.0313 28.9531 28.8594 28.7813 28.7031 28.4063 28.3281 28.25 28.1719 28.0938 28.0156 27.9375 27.8594 27.8438 27.8906 27.8125 27.7656 27.75 27.7188 27.6875 27.6719 27.6406 27.6094 27.5781 26.9531 26.875 26.7969 26.7344 26.6563 26.5938 26.6563 26.7344 26.8125 26.8594 26.7969 26.7188 26.6563 26.5938 26.5156 26.4531 25.8438 25.7813 25.7188 25.6563 25.5781 25.5156 25.4531 25.3906 25.3281 25.3438 25.3906 25.3281 25.2656 25.2031 25.1406 25.0938 25.0313 24.9688 24.9063 24.8438 24.7969 24.7344 24.6719 24.625 24.5625 24.5156 24.4531 24.3906 24.3438 24.2813 24.2344 24.1875 24.125 24.0781 24.0156 23.9688 23.9219 23.8594 23.8125 23.7656 23.7188 23.6563 23.6094 23.5625 23.5156 23.4688 23.4219 23.375 23.3281 23.2813 23.2344 23.1875 23.1406 23.0938 23.0469 22.8281 22.7969 22.75 22.7031 22.6563 22.625 22.5781 22.5313 22.4844 22.4531 22.5781 22.6875 22.7969 22.75 22.7031 22.6719 22.625 22.5938 22.5469 22.5156 22.4688 22.4375 22.3906 22.3594 21.8594 21.8281 21.7813 21.75 21.7188 21.6875 21.6406 21.6094 21.5781 21.6875 21.8125 21.9219 21.8906 21.8594 21.8281 21.7813 21.75 21.7188 21.6875 21.6563 21.625 21.5938 21.5625 21.5313 21.0625 21.0313 21 20.9688 20.9531 20.9219 20.8906 20.8594 20.8281 20.8125 20.7813 20.75 20.7344 20.8125 20.9844 21.1406 21.2969 21.4688 22.7344 22.7188 22.6875 22.6719 22.6406 22.6094 22.7031 22.8906 23.0781 24.4219 24.3906 24.3594 24.3438 24.3125 24.3125 24.5156 24.75 24.9688 25.6406 25.875 26.125 26.3594 26.625 26.875 27.1406 27.4063 27.6719 27.9531 28.2344 28.5313 28.8125 28.9531 28.9219 29.2344 29.5469 30.3906 30.7188 30.8125 30.875 31.2188 32.125 32.4688 32.4375 32.6875 33.0938 33.8125 34.375 34.3438 34.7813 36.0625 36.0313 36.125 36.625 37.75 38.2813 38.7813 39.3438 39.9063 40.4688 40.8438 40.9375 41.5625 42.7188 42.8125 44.25 44.4688 44.875 65504 65504 65504 65504 65504 65504 65504 65504 65504 65504 65504 65504 65504 65504 65504 65504 65504 65504 65504 65504 65504 65504 65504 65504 65504 65504 65504 65504 65504 65504 65504 65504 65504 65504 65504 65504 65504 65504 65504 65504 65504 65504 65504 65504 65504 65504 65504 65504 65504 65504 65504 65504 65504 65504 65504 65504 65504 65504 65504 65504 65504 65504 65504 65504 65504 65504 65504 65504 65504 65504 65504 65504 65504 65504 65504 65504 65504 65504 65504 65504 65504 65504 65504 65504 65504 65504 65504 65504 65504 65504 65504 65504 65504
65504 65504 65504 65504 65504 65504 65504 65504 65504 65504 65504 65504 65504 65504 65504 65504 65504 65504 65504 65504 65504 65504 65504 65504 65504 65504 65504 65504 65504 65504 65504 65504 65504 65504 65504 65504 65504 65504 65504 65504 65504 38.1563 38.0313 37.875 37.75 37.625 37.5313 37.5625 37.5 37.3438 37.2188 37.0938 36.9688 36.8438 36.4375 36.3125 36.1875 36.0625 36.0313 36.0625 35.9375 35.8125 35.6875 35.5625 35.4375 35.3438 34.9688 34.8438 34.7188 34.5938 34.5 34.4375 34.5 34.375 34.2813 34.1563 34.0313 33.9375 33.8125 33.6875 33.5938 33.4688 33.375 33.25 33.1563 33.0313 32.9375 32.8125 32.7188 32.625 32.5 32.4063 32.3125 32.1875 32.0938 32 31.9063 31.7969 31.7031 31.5938 31.5 31.4063 31.0781 30.9844 30.875 30.7813 30.6875 30.5938 30.5156 30.5781 30.5313 30.4375 30.3438 30.25 30.1719 30.0781 29.9844 29.6719 29.5938 29.5 29.4063 29.3281 29.2344 29.25 29.2813 29.1875 29.1094 29.0156 28.9375 28.8594 28.7656 28.6875 28.3906 28.3125 28.2344 28.1563 28.0781 28 27.9219 27.8438 27.8281 27.9063 27.9844 28.0469 28.0313 27.9531 27.875 27.7969 27.7188 27.6406 27.5781 26.9375 26.8594 26.7969 26.7188 26.6563 26.5781 26.6406 26.7188 26.7969 26.8438 26.7813 26.7031 26.6406 26.5781 26.5 26.4375 25.8281 25.7656 25.7031 25.6406 25.5781 25.5156 25.4375 25.375 25.3125 25.3281 25.375 25.3125 25.25 25.1875 25.1406 25.0781 25.0156 24.9531 24.8906 24.8438 24.7813 24.7188 24.6719 24.6094 24.5469 24.5 24.4375 24.3906 24.3281 24.2813 24.2188 24.1719 24.1094 24.0625 24.0156 23.9531 23.9063 23.8594 23.7969 23.75 23.7031 23.6563 23.5938 23.5469 23.5 23.4531 23.4063 23.3594 23.3125 23.2656 23.2188 23.1719 23.125 23.0781 23.0313 22.8281 22.7813 22.7344 22.6875 22.6406 22.6094 22.5625 22.5156 22.4688 22.4375 22.5625 22.6719 22.7813 22.7344 22.6875 22.6563 22.6094 22.5781 22.5313 22.5 22.4531 22.4219 22.375 22.3438 21.8438 21.8125 21.7813 21.7344 21.7031 21.6719 21.625 21.5938 21.5625 21.6719 21.7969 21.9063 21.875 21.8438 21.8125 21.7813 21.75 21.7031 21.6719 21.6406 21.6094 21.5781 21.5469 21.5156 21.0469 21.0156 20.9844 20.9688 20.9375 20.9063 20.875 20.8438 20.8281 20.7969 20.7656 20.7344 20.7188 20.8125 20.9688 21.125 21.2813 21.4531 22.7188 22.7031 22.6719 22.6563 22.625 22.5938 22.6875 22.875 23.0625 24.4063 24.375 24.3594 24.3281 24.2969 24.2969 24.5156 24.7344 24.9531 25.625 25.8594 26.1094 26.3594 26.6094 26.8594 27.125 27.3906 27.6563 27.9375 28.2188 28.5156 28.7969 28.9375 28.9063 29.2188 29.5313 30.375 30.7031 30.7813 30.8594 31.2031 32.125 32.4375 32.4375 32.6875 33.0938 33.8125 34.2188 34.3125 34.75 36.0313 36 36.125 36.5938 37.75 38.25 38.7813 39.3125 39.875 40.4375 40.8125 40.9063 41.5313 42.6875 42.8125 44.25 44.4375 44.875 65504 65504 65504 65504 65504 65504 65504 65504 65504 65504 65504 65504 65504 65504 65504 65504 65504 65504 65504 65504 65504 65504 65504 65504 65504 65504 65504 65504 65504 65504 65504 65504 65504 65504 65504 65504 65504 65504 65504 65504 65504 65504 65504 65504 65504 65504 65504 65504 65504 65504 65504 65504 65504 65504 65504 65504 65504 65504 65504 65504 65504 65504 65504 65504 65504 65504 65504 65504 65504 65504 65504 65504 65504 65504 65504 65504 65504 65504 65504 65504 65504 65504 65504 65504 65504 65504 65504 65504 65504 65504 65504 65504 65504
65504 65504 65504 65504 65504 65504 65504 65504 65504 65504 65504 65504 65504 65504 65504 65504 65504 65504 65504 65504 65504 65504 65504 65504 65504 65504 65504 65504 65504 65504 65504 65504 65504 65504 65504 65504 65504 65504 65504 65504 65504 38.1563 38 37.875 37.75 37.5938 37.5 37.5625 37.4688 37.3438 37.2188 37.0938 36.9375 36.8125 36.4375 36.3125 36.1875 36.0625 36 36.0625 35.9375 35.8125 35.6875 35.5625 35.4375 35.3125 34.9375 34.8125 34.7188 34.5938 34.4688 34.4063 34.4688 34.375 34.25 34.1563 34.0313 33.9063 33.8125 33.6875 33.5625 33.4688 33.3438 33.25 33.125 33.0313 32.9375 32.8125 32.7188 32.5938 32.5 32.4063 32.2813 32.1875 32.0938 31.9844 31.8906 31.7813 31.6875 31.5781 31.4844 31.3906 31.0625 30.9688 30.875 30.7813 30.6719 30.5781 30.5 30.5625 30.5156 30.4219 30.3281 30.25 30.1563 30.0625 29.9688 29.875 29.5781 29.4844 29.4063 29.3125 29.2188 29.2344 29.2656 29.1719 29.0938 29 28.9688 28.9531 28.9219 28.8906 28.3906 28.2969 28.2188 28.1406 28.0625 27.9844 27.9063 27.8281 27.8125 27.8906 27.9688 28.0313 28.0156 27.9375 27.8594 27.7813 27.7031 27.6406 27.5625 26.9219 26.8438 26.7813 26.7031 26.6406 26.5625 26.625 26.7031 26.7813 26.8281 26.7656 26.7031 26.625 26.5625 26.4844 26.4219 25.8125 25.75 25.6875 25.625 25.5625 25.5 25.4375 25.375 25.3125 25.3125 25.3594 25.2969 25.2344 25.1875 25.125 25.0625 25 24.9375 24.875 24.8281 24.7656 24.7031 24.6563 24.5938 24.5313 24.4844 24.4219 24.375 24.3125 24.2656 24.2031 24.1563 24.0938 24.0469 24 23.9375 23.8906 23.8438 23.7813 23.7344 23.6875 23.6406 23.5938 23.5313 23.4844 23.4375 23.3906 23.3438 23.2969 23.25 23.2031 23.1563 23.1094 23.0625 23.0156 22.8125 22.7656 22.7188 22.6719 22.6406 22.5938 22.5469 22.5 22.4688 22.4219 22.5469 22.6563 22.7656 22.7188 22.6875 22.6406 22.5938 22.5625 22.5156 22.4844 22.4375 22.4063 22.3594 22.3281 21.8281 21.7969 21.7656 21.7188 21.6875 21.6563 21.625 21.5781 21.5469 21.6563 21.7813 21.8906 21.8594 21.8281 21.7969 21.7656 21.7344 21.7031 21.6719 21.625 21.5938 21.5625 21.5313 21.5156 21.0313 21.0156 20.9844 20.9531 20.9219 20.8906 20.8594 20.8438 20.8125 20.7813 20.75 20.7344 20.7031 20.7969 20.9531 21.1094 21.2813 21.4375 22.7031 22.6875 22.6719 22.6406 22.6094 22.5781 22.6719 22.8594 23.0469 24.3906 24.3594 24.3438 24.3125 24.2813 24.2813 24.5 24.7188 24.9375 25.6094 25.8438 26.0938 26.3438 26.5938 26.8438 27.1094 27.375 27.6406 27.9219 28.2031 28.5 28.7969 28.9219 28.8906 29.2031 29.5156 30.3594 30.6875 30.7656 30.8438 31.1875 32.0938 32.4375 32.4063 32.6563 33.0625 34.0625 34.2813 34.3125 34.75 36 36 36.0938 36.5938 37.7188 38.2188 38.75 39.3125 39.8438 40.4375 40.7813 40.9063 41.5 42.6875 42.7813 44.2188 44.4375 44.8438 65504 65504 65504 65504 65504 65504 65504 65504 65504 65504 65504 65504 65504 65504 65504 65504 65504 65504 65504 65504 65504 65504 65504 65504 65504 65504 65504 65504 65504 65504 65504 65504 65504 65504 65504 65504 65504 65504 65504 65504 65504 65504 65504 65504 65504 65504 65504 65504 65504 65504 65504 65504 65504 65504 65504 65504 65504 65504 65504 65504 65504 65504 65504 65504 65504 65504 65504 65504 65504 65504 65504 65504 65504 65504 65504 65504 65504 65504 65504 65504 65504 65504 65504 65504 65504 65504 65504 65504 65504 65504 65504 65504 65504
65504 65504 65504 65504 65504 65504 65504 65504 65504 65504 65504 65504 65504 65504 65504 65504 65504 65504 65504 65504 65504 65504 65504 65504 65504 65504 65504 65504 65504 65504 65504 65504 65504 65504 65504 65504 65504 65504 65504 65504 65504 38.125 38 37.875 37.7188 37.5938 37.5 37.5313 37.4688 37.3438 37.1875 37.0625 36.9375 36.8125 36.4063 36.2813 36.1563 36.0313 36 36.0313 35.9063 35.7813 35.6875 35.5625 35.4375 35.3125 34.9375 34.8125 34.6875 34.5938 34.4688 34.4063 34.4688 34.375 34.25 34.125 34.0313 33.9063 33.7813 33.6875 33.5625 33.4688 33.3438 33.25 33.125 33.0313 32.9063 32.8125 32.6875 32.5938 32.5 32.375 32.2813 32.1875 32.0625 31.9688 31.875 31.7656 31.6719 31.5781 31.4688 31.375 31.0469 30.9531 30.8594 30.7656 30.6719 30.5781 30.4844 30.5469 30.5156 30.4219 30.3281 30.2344 30.1406 30.0469 29.9531 29.8594 29.5625 29.4688 29.3906 29.2969 29.2188 29.2188 29.2969 29.3594 29.4219 29.3906 29.2969 29.2188 29.125 29.0469 28.375 28.2969 28.2031 28.125 28.0469 27.9688 27.8906 27.8125 27.7969 27.875 27.9531 28.0156 28 27.9219 27.8438 27.7656 27.6875 27.625 27.5469 26.9063 26.8438 26.7656 26.6875 26.625 26.5469 26.6094 26.6875 26.7656 26.8281 26.75 26.6875 26.6094 26.5469 26.4844 26.4063 25.7969 25.7344 25.6719 25.6094 25.5469 25.4844 25.4219 25.3594 25.2969 25.2969 25.3438 25.2969 25.2344 25.1719 25.1094 25.0469 24.9844 24.9219 24.875 24.8125 24.75 24.6875 24.6406 24.5781 24.5313 24.4688 24.4063 24.3594 24.2969 24.25 24.1875 24.1406 24.0938 24.0313 23.9844 23.9219 23.875 23.8281 23.7813 23.7188 23.6719 23.625 23.5781 23.5313 23.4688 23.4219 23.375 23.3281 23.2813 23.2344 23.1875 23.1406 23.0938 23.0469 23 22.7969 22.75 22.7031 22.6563 22.625 22.5781 22.5313 22.5 22.4531 22.4219 22.5313 22.6406 22.75 22.7031 22.6719 22.625 22.5938 22.5469 22.5156 22.4688 22.4375 22.3906 22.3594 22.3125 21.8281 21.7813 21.75 21.7188 21.6719 21.6406 21.6094 21.5781 21.5313 21.6406 21.7656 21.8906 21.8438 21.8125 21.7813 21.75 21.7188 21.6875 21.6563 21.625 21.5938 21.5625 21.5313 21.5 21.0313 21 20.9688 20.9375 20.9063 20.875 20.8594 20.8281 20.7969 20.7656 20.75 20.7188 20.6875 20.7813 20.9375 21.0938 21.2656 21.4219 22.6875 22.6719 22.6563 22.625 22.5938 22.5781 22.6563 22.8438 23.0469 24.375 24.3438 24.3281 24.2969 24.2656 24.2656 24.4844 24.7031 24.9219 25.5938 25.8281 26.0781 26.3281 26.5781 26.8281 27.0938 27.3594 27.625 27.9063 28.1875 28.4844 28.7813 28.9063 28.875 29.1875 29.5 30.3438 30.6719 30.75 30.8281 31.1719 32.0938 32.4063 32.375 32.6563 33.0625 34.0313 34.3125 34.2813 34.7188 35.5 35.9688 36.0938 36.5625 37.7188 38.2188 38.75 39.2813 39.8438 40.4063 40.7813 40.875 41.5 42.6563 42.7813 44.3125 44.4063 44.8438 65504 65504 65504 65504 65504 65504 65504 65504 65504 65504 65504 65504 65504 65504 65504 65504 65504 65504 65504 65504 65504 65504 65504 65504 65504 65504 65504 65504 65504 65504 65504 65504 65504 65504 65504 65504 65504 65504 65504 65504 65504 65504 65504 65504 65504 65504 65504 65504 65504 65504 65504 65504 65504 65504 65504 65504 65504 65504 65504 65504 65504 65504 65504 65504 65504 65504 65504 65504 65504 65504 65504 65504 65504 65504 65504 65504 65504 65504 65504 65504 65504 65504 65504 65504 65504 65504 65504 65504 65504 65504 65504 65504 65504
65504 65504 65504 65504 65504 65504 65504 65504 65504 65504 65504 65504 65504 65504 65504 65504 65504 65504 65504 65504 65504 65504 65504 65504 65504 65504 65504 65504 65504 65504 65504 65504 65504 65504 65504 65504 65504 65504 65504 65504 65504 38.125 38 37.8438 37.7188 37.5938 37.4688 37.5313 37.4688 37.3125 37.1875 37.0625 36.9375 36.8125 36.4063 36.2813 36.1563 36.0313 35.9688 36.0313 35.9063 35.7813 35.6563 35.5313 35.4063 35.2813 34.9375 34.8125 34.6875 34.5625 34.4375 34.375 34.4375 34.3438 34.2188 34.125 34 33.9063 33.7813 33.6563 33.5625 33.4375 33.3438 33.2188 33.125 33 32.9063 32.7813 32.6875 32.5938 32.4688 32.375 32.25 32.1563 32.0625 31.9688 31.8594 31.7656 31.6563 31.5625 31.4531 31.3594 31.0469 30.9375 30.8438 30.75 30.6563 30.5625 30.4688 30.5313 30.5 30.4063 30.3438 30.2969 30.2656 30.2344 30.2031 30.1719 29.5469 29.4688 29.375 29.2813 29.2031 29.2031 29.2656 29.3438 29.4063 29.375 29.2969 29.2031 29.125 29.0313 28.3594 28.2813 28.2031 28.125 28.0313 27.9531 27.875 27.7969 27.7813 27.8594 27.9219 28 27.9844 27.9063 27.8281 27.7656 27.6875 27.6094 27.5313 26.8906 26.8281 26.75 26.6875 26.6094 26.5313 26.5938 26.6719 26.75 26.8125 26.7344 26.6719 26.5938 26.5313 26.4688 26.3906 25.7969 25.7188 25.6563 25.5938 25.5313 25.4688 25.4063 25.3438 25.2813 25.2813 25.3438 25.2813 25.2188 25.1563 25.0938 25.0313 24.9688 24.9219 24.8594 24.7969 24.7344 24.6875 24.625 24.5625 24.5156 24.4531 24.4063 24.3438 24.2969 24.2344 24.1875 24.125 24.0781 24.0156 23.9688 23.9219 23.8594 23.8125 23.7656 23.7031 23.6563 23.6094 23.5625 23.5156 23.4688 23.4063 23.3594 23.3125 23.2656 23.2188 23.1719 23.125 23.0781 23.0313 23 22.7813 22.7344 22.6875 22.6563 22.6094 22.5625 22.5156 22.4844 22.4375 22.4063 22.5156 22.625 22.7344 22.7031 22.6563 22.6094 22.5781 22.5313 22.5 22.4531 22.4219 22.375 22.3438 22.2969 21.8125 21.7656 21.7344 21.7031 21.6719 21.625 21.5938 21.5625 21.5313 21.625 21.7656 21.875 21.8438 21.7969 21.7656 21.7344 21.7031 21.6719 21.6406 21.6094 21.5781 21.5469 21.5156 21.4844 21.0156 20.9844 20.9531 20.9219 20.8906 20.875 20.8438 20.8125 20.7813 20.75 20.7344 20.7031 20.6719 20.7656 20.9219 21.0938 21.25 21.4219 22.6719 22.6719 22.6406 22.6094 22.5781 22.5625 22.6406 22.8438 23.0313 24.3594 24.3281 24.3125 24.2813 24.25 24.25 24.4688 24.6875 24.9219 25.5781 25.8281 26.0625 26.3125 26.5625 26.8125 27.0781 27.3438 27.6094 27.8906 28.1719 28.4688 28.7656 28.8906 28.8594 29.1719 29.4844 30.3281 30.6563 30.7344 30.8125 31.1563 32.0625 32.4063 32.375 32.6563 33.0313 34.0313 34.2813 34.2813 34.7188 35.4688 35.9375 36.0625 36.5625 37.6875 38.1875 38.7188 39.2813 39.8125 40.4063 40.75 40.875 41.4688 42.625 42.75 44.4063 44.375 44.8125 65504 65504 65504 65504 65504 65504 65504 65504 65504 65504 65504 65504 65504 65504 65504 65504 65504 65504 65504 65504 65504 65504 65504 65504 65504 65504 65504 65504 65504 65504 65504 65504 65504 65504 65504 65504 65504 65504 65504 65504 65504 65504 65504 65504 65504 65504 65504 65504 65504 65504 65504 65504 65504 65504 65504 65504 65504 65504 65504 65504 65504 65504 65504 65504 65504 65504 65504 65504 65504 65504 65504 65504 65504 65504 65504 65504 65504 65504 65504 65504 65504 65504 65504 65504 65504 65504 65504 65504 65504 65504 65504 65504 65504
65504 65504 65504 65504 65504 65504 65504 65504 65504 65504 65504 65504 65504 65504 65504 65504 65504 65504 65504 65504 65504 65504 65504 65504 65504 65504 65504 65504 65504 65504 65504 65504 65504 65504 65504 65504 65504 65504 65504 65504 65504 38.125 37.9688 37.8438 37.7188 37.5625 37.4375 37.5 37.4375 37.3125 37.1875 37.0625 36.9063 36.7813 36.4063 36.2813 36.125 36 35.9688 36 35.9063 35.7813 35.6563 35.5313 35.4063 35.2813 34.9063 34.7813 34.6875 34.5625 34.4375 34.375 34.4375 34.3438 34.2188 34.0938 34 33.875 33.7813 33.6563 33.5313 33.4375 33.3125 33.2188 33.0938 33 32.875 32.7813 32.6875 32.5625 32.4688 32.3438 32.25 32.1563 32.0625 31.9531 31.8438 31.75 31.6563 31.5469 31.4531 31.3438 31.0313 30.9375 30.8281 30.7344 30.6406 30.5469 30.4531 30.5156 30.5781 30.6406 30.7031 30.6094 30.5156 30.4375 30.3438 30.25 29.5469 29.4531 29.3594 29.2813 29.1875 29.1875 29.25 29.3281 29.3906 29.3594 29.2813 29.1875 29.1094 29.0156 28.3438 28.2656 28.1875 28.1094 28.0313 27.9531 27.8594 27.7813 27.7656 27.8438 27.9063 27.9844 27.9688 27.8906 27.8281 27.75 27.6719 27.5938 27.5156 26.8906 26.8125 26.7344 26.6719 26.5938 26.5313 26.5781 26.6563 26.7344 26.7969 26.7188 26.6563 26.5938 26.5156 26.4531 26.3906 25.7813 25.7188 25.6406 25.5781 25.5156 25.4531 25.3906 25.3281 25.2656 25.2656 25.3281 25.2656 25.2031 25.1406 25.0781 25.0156 24.9688 24.9063 24.8438 24.7813 24.7344 24.6719 24.6094 24.5625 24.5 24.4375 24.3906 24.3281 24.2813 24.2188 24.1719 24.1094 24.0625 24.0156 23.9531 23.9063 23.8438 23.7969 23.75 23.7031 23.6406 23.5938 23.5469 23.5 23.4531 23.4063 23.3594 23.3125 23.25 23.2031 23.1563 23.1094 23.0781 23.0313 22.9844 22.7656 22.7188 22.6875 22.6406 22.5938 22.5469 22.5156 22.4688 22.4219 22.3906 22.5 22.6094 22.7188 22.6875 22.6406 22.6094 22.5625 22.5156 22.4844 22.4375 22.4063 22.3594 22.3281 22.2969 21.7969 21.7656 21.7188 21.6875 21.6563 21.6094 21.5781 21.5469 21.5156 21.6094 21.75 21.8594 21.8281 21.7969 21.75 21.7188 21.6875 21.6563 21.625 21.5938 21.5625 21.5313 21.5 21.4688 21 20.9688 20.9375 20.9063 20.8906 20.8594 20.8281 20.7969 20.7656 20.75 20.7188 20.6875 20.6719 20.7656 20.9219 21.0781 21.2344 21.4063 22.6563 22.6563 22.625 22.5938 22.5781 22.5469 22.6406 22.8281 23.0156 24.3438 24.3281 24.2969 24.2656 24.2344 24.2344 24.4531 24.6719 24.9063 25.5625 25.8125 26.0469 26.2969 26.5469 26.7969 27.0625 27.3281 27.6094 27.875 28.1563 28.4531 28.75 28.875 28.8438 29.1563 29.4688 30.3125 30.6406 30.7188 30.7969 31.1563 32.0625 32.375 32.3438 32.625 33.0313 34 34.2813 34.25 34.6875 35.75 35.9375 36.0625 36.5313 37.6875 38.1875 38.7188 39.25 39.8125 40.375 40.7188 40.8438 42.625 42.5938 42.75 44.375 44.3438 44.8125 65504 65504 65504 65504 65504 65504 65504 65504 65504 65504 65504 65504 65504 65504 65504 65504 65504 65504 65504 65504 65504 65504 65504 65504 65504 65504 65504 65504 65504 65504 65504 65504 65504 65504 65504 65504 65504 65504 65504 65504 65504 65504 65504 65504 65504 65504 65504 65504 65504 65504 65504 65504 65504 65504 65504 65504 65504 65504 65504 65504 65504 65504 65504 65504 65504 65504 65504 65504 65504 65504 65504 65504 65504 65504 65504 65504 65504 65504 65504 65504 65504 65504 65504 65504 65504 65504 65504 65504 65504 65504 65504 65504 65504
65504 65504 65504 65504 65504 65504 65504 65504 65504 65504 65504 65504 65504 65504 65504 65504 65504 65504 65504 65504 65504 65504 65504 65504 65504 65504 65504 65504 65504 65504 65504 65504 65504 65504 65504 65504 65504 65504 65504 65504 65504 38.0938 37.9688 37.8438 37.6875 37.5625 37.4375 37.4688 37.4375 37.3125 37.1563 37.0313 36.9063 36.7813 36.375 36.25 36.125 36 35.9375 36 35.875 35.75 35.625 35.5313 35.4063 35.2813 34.9063 34.7813 34.6563 34.5313 34.4375 34.3438 34.4063 34.3125 34.2188 34.0938 33.9688 33.875 33.75 33.6563 33.5313 33.4063 33.3125 33.1875 33.0938 33 32.875 32.7813 32.6563 32.5625 32.4375 32.3438 32.25 32.125 32.0313 31.9375 31.8438 31.7344 31.6406 31.5313 31.4375 31.3438 31.0156 30.9219 30.8281 30.7188 30.625 30.5313 30.4375 30.4844 30.5469 30.625 30.6875 30.6094 30.5156 30.4219 30.3281 30.2344 29.5313 29.4375 29.3438 29.2656 29.1719 29.1719 29.2344 29.3125 29.375 29.3438 29.2656 29.1719 29.0938 29.0156 28.9219 28.25 28.1719 28.0938 28.0156 27.9375 27.8594 27.7813 27.75 27.8281 27.8906 27.9688 27.9688 27.8906 27.8125 27.7344 27.6563 27.5781 27.5 26.875 26.7969 26.7344 26.6563 26.5781 26.5156 26.5625 26.6406 26.7188 26.7813 26.7188 26.6406 26.5781 26.5 26.4375 26.375 25.7656 25.7031 25.6406 25.5781 25.5 25.4375 25.375 25.3125 25.25 25.25 25.3125 25.25 25.1875 25.125 25.0625 25.0156 24.9531 24.8906 24.8281 24.7656 24.7188 24.6563 24.5938 24.5469 24.4844 24.4375 24.375 24.3125 24.2656 24.2031 24.1563 24.1094 24.0469 24 23.9375 23.8906 23.8438 23.7813 23.7344 23.6875 23.6406 23.5781 23.5313 23.4844 23.4375 23.3906 23.3438 23.2969 23.25 23.2031 23.1563 23.1094 23.0625 23.0156 22.9688 22.7656 22.7188 22.6719 22.625 22.5781 22.5469 22.5 22.4531 22.4063 22.375 22.4844 22.5938 22.7188 22.6719 22.625 22.5938 22.5469 22.5156 22.4688 22.4375 22.3906 22.3594 22.3125 22.2813 21.7813 21.75 21.7188 21.6719 21.6406 21.6094 21.5625 21.5313 21.5 21.6094 21.7344 21.8438 21.8125 21.7813 21.75 21.7188 21.6719 21.6406 21.6094 21.5781 21.5469 21.5156 21.4844 21.4531 20.9844 20.9531 20.9375 20.9063 20.875 20.8438 20.8125 20.7813 20.7656 20.7344 20.7031 20.6719 20.6563 20.75 20.9063 21.0625 21.2188 21.3906 22.6563 22.6406 22.6094 22.5781 22.5625 22.5313 22.625 22.8125 23 24.3281 24.3125 24.2813 24.25 24.2344 24.2188 24.4375 24.6563 24.8906 25.5625 25.7969 26.0313 26.2813 26.5313 26.7969 27.0469 27.3125 27.5938 27.8594 28.1563 28.4375 28.7344 28.8438 28.8281 29.1406 29.4531 30.2969 30.6406 30.7031 30.7813 31.1406 32.0313 32.3438 32.3438 32.625 33 34 34.25 34.25 34.6875 35.75 35.9063 36.0313 36.5313 37.6563 38.1875 38.6875 39.25 39.7813 40.375 40.7188 40.8438 42.5938 42.5938 42.7188 44.3438 44.3125 44.8125 65504 65504 65504 65504 65504 65504 65504 65504 65504 65504 65504 65504 65504 65504 65504 65504 65504 65504 65504 65504 65504 65504 65504 65504 65504 65504 65504 65504 65504 65504 65504 65504 65504 65504 65504 65504 65504 65504 65504 65504 65504 65504 65504 65504 65504 65504 65504 65504 65504 65504 65504 65504 65504 65504 65504 65504 65504 65504 65504 65504 65504 65504 65504 65504 65504 65504 65504 65504 65504 65504 65504 65504 65504 65504 65504 65504 65504 65504 65504 65504 65504 65504 65504 65504 65504 65504 65504 65504 65504 65504 65504 65504 65504
65504 65504 65504 65504 65504 65504 65504 65504 65504 65504 65504 65504 65504 65504 65504 65504 65504 65504 65504 65504 65504 65504 65504 65504 65504 65504 65504 65504 65504 65504 65504 65504 65504 65504 65504 65504 65504 65504 65504 65504 65504 38.0938 37.9688 37.8125 37.6875 37.5625 37.4063 37.4688 37.4375 37.2813 37.1563 37.0313 36.9063 36.7813 36.375 36.25 36.125 36 35.9375 35.9688 35.875 35.75 35.625 35.5 35.375 35.25 34.875 34.7813 34.6563 34.5313 34.4063 34.3438 34.375 34.3125 34.1875 34.0938 33.9688 33.8438 33.75 33.625 33.5313 33.4063 33.3125 33.1875 33.0938 32.9688 32.875 32.75 32.6563 32.5313 32.4375 32.3438 32.2188 32.125 32.0313 31.9219 31.8281 31.7188 31.625 31.5313 31.4219 31.3281 31 30.9063 30.8125 30.7188 30.625 30.5313 30.4375 30.4688 30.5313 30.6094 30.6719 30.5938 30.5 30.4063 30.3125 30.2188 29.5156 29.4219 29.3438 29.25 29.1719 29.1563 29.2188 29.2969 29.3594 29.3438 29.25 29.1719 29.0781 29 28.9219 28.25 28.1563 28.0781 28 27.9219 27.8438 27.7656 27.7344 27.8125 27.875 27.9531 27.9531 27.875 27.7969 27.7188 27.6406 27.5625 27.5 26.8594 26.7813 26.7188 26.6406 26.5781 26.5 26.5469 26.625 26.7031 26.7656 26.7031 26.625 26.5625 26.5 26.4219 26.3594 26.2969 25.6875 25.625 25.5625 25.5 25.4375 25.375 25.3125 25.25 25.2344 25.2969 25.2344 25.1719 25.1094 25.0625 25 24.9375 24.875 24.8125 24.7656 24.7031 24.6406 24.5938 24.5313 24.4688 24.4219 24.3594 24.3125 24.25 24.2031 24.1406 24.0938 24.0313 23.9844 23.9375 23.875 23.8281 23.7813 23.7188 23.6719 23.625 23.5781 23.5156 23.4688 23.4219 23.375 23.3281 23.2813 23.2344 23.1875 23.1406 23.0938 23.0469 23 22.9531 22.75 22.7031 22.6563 22.6094 22.5625 22.5313 22.4844 22.4375 22.4063 22.3594 22.4688 22.5938 22.7031 22.6563 22.6094 22.5781 22.5313 22.5 22.4531 22.4219 22.375 22.3438 22.2969 22.2656 21.7656 21.7344 21.7031 21.6563 21.625 21.5938 21.5625 21.5156 21.4844 21.5938 21.7188 21.8281 21.7969 21.7656 21.7344 21.7031 21.6719 21.6406 21.5938 21.5625 21.5313 21.5 21.4688 21.4375 20.9844 20.9531 20.9219 20.8906 20.8594 20.8281 20.7969 20.7813 20.75 20.7188 20.6875 20.6719 20.6406 20.7344 20.8906 21.0469 21.2188 21.375 22.6406 22.625 22.5938 22.5781 22.5469 22.5156 22.6094 22.7969 22.9844 24.3125 24.2969 24.2656 24.2344 24.2188 24.2188 24.4219 24.6563 24.875 25.5469 25.7813 26.0156 26.2656 26.5156 26.7813 27.0313 27.2969 27.5781 27.8594 28.1406 28.4219 28.7188 28.8281 28.8125 29.125 29.4375 30.2813 30.625 30.6875 30.7656 31.125 32.0313 32.3438 32.3125 32.5938 33 33.9688 34.2188 34.2188 34.6563 35.7188 35.875 36.0313 36.5 37.6563 38.1563 38.6875 39.2188 39.7813 40.3438 40.6875 40.8438 42.5938 42.5625 42.7188 44.3125 44.3125 44.7813 65504 65504 65504 65504 65504 65504 65504 65504 65504 65504 65504 65504 65504 65504 65504 65504 65504 65504 65504 65504 65504 65504 65504 65504 65504 65504 65504 65504 65504 65504 65504 65504 65504 65504 65504 65504 65504 65504 65504 65504 65504 65504 65504 65504 65504 65504 65504 65504 65504 65504 65504 65504 65504 65504 65504 65504 65504 65504 65504 65504 65504 65504 65504 65504 65504 65504 65504 65504 65504 65504 65504 65504 65504 65504 65504 65504 65504 65504 65504 65504 65504 65504 65504 65504 65504 65504 65504 65504 65504 65504 65504 65504 65504
65504 65504 65504 65504 65504 65504 65504 65504 65504 65504 65504 65504 65504 65504 65504 65504 65504 65504 65504 65504 65504 65504 65504 65504 65504 65504 65504 65504 65504 65504 65504 65504 65504 65504 65504 65504 65504 65504 65504 65504 65504 38.0938 37.9375 37.8125 37.6875 37.5313 37.4063 37.4375 37.4063 37.2813 37.1563 37.0313 36.875 36.75 36.375 36.25 36.125 36 35.9063 35.9688 35.875 35.75 35.625 35.5 35.375 35.25 34.875 34.75 34.6563 34.5313 34.4063 34.3125 34.375 34.3125 34.1875 34.0625 33.9688 33.8438 33.75 33.625 33.5 33.4063 33.2813 33.1875 33.0625 32.9688 32.8438 32.75 32.6563 32.5313 32.4375 32.3125 32.2188 32.125 32 31.9219 31.8125 31.7188 31.6094 31.5156 31.4219 31.3125 31 30.8906 30.7969 30.7031 30.6094 30.5156 30.4219 30.4531 30.5156 30.5781 30.6563 30.5781 30.4844 30.3906 30.2969 30.2188 29.5 29.4219 29.3281 29.2344 29.1563 29.1406 29.2031 29.2813 29.3438 29.3281 29.2344 29.1563 29.0781 28.9844 28.9063 28.2344 28.1563 28.0625 27.9844 27.9063 27.8281 27.75 27.7188 27.7969 27.8594 27.9375 27.9375 27.8594 27.7813 27.7031 27.625 27.5625 27.4844 26.8438 26.7813 26.7031 26.625 26.5625 26.4844 26.5313 26.6094 26.6875 26.7656 26.6875 26.625 26.5469 26.4844 26.4063 26.3438 26.2813 25.6719 25.6094 25.5469 25.4844 25.4219 25.3594 25.2969 25.2344 25.2188 25.2813 25.2188 25.1719 25.1094 25.0469 24.9844 24.9219 24.8594 24.8125 24.75 24.6875 24.625 24.5781 24.5156 24.4688 24.4063 24.3438 24.2969 24.2344 24.1875 24.125 24.0781 24.0313 23.9688 23.9219 23.8594 23.8125 23.7656 23.7188 23.6563 23.6094 23.5625 23.5156 23.4688 23.4063 23.3594 23.3125 23.2656 23.2188 23.1719 23.125 23.0781 23.0313 22.9844 22.9375 22.7344 22.6875 22.6406 22.5938 22.5625 22.5156 22.4688 22.4219 22.3906 22.3438 22.4531 22.5781 22.6875 22.6406 22.6094 22.5625 22.5313 22.4844 22.4375 22.4063 22.3594 22.3281 22.2969 22.25 21.7656 21.7188 21.6875 21.6563 21.6094 21.5781 21.5469 21.5156 21.4688 21.5781 21.7031 21.8281 21.7813 21.75 21.7188 21.6875 21.6563 21.625 21.5938 21.5625 21.5313 21.5 21.4688 21.4375 20.9688 20.9375 20.9063 20.875 20.8438 20.8125 20.7969 20.7656 20.7344 20.7031 20.6875 20.6563 20.625 20.7188 20.875 21.0469 21.2031 21.3594 22.625 22.6094 22.5781 22.5625 22.5313 22.5 22.5938 22.7813 22.9844 24.3125 24.2813 24.25 24.2188 24.2031 24.2031 24.4219 24.6406 24.8594 25.5313 25.7656 26.0156 26.25 26.5 26.7656 27.0313 27.2969 27.5625 27.8438 28.125 28.4063 28.7031 28.8125 28.8125 29.1094 29.4219 30.2656 30.6094 30.6563 30.75 31.1094 32 32.3125 32.2813 32.5938 32.9688 33.9688 34.2188 34.2188 34.6563 35.7188 35.875 36 36.5 37.625 38.1563 38.6563 39.2188 39.7813 40.3438 40.6563 40.8125 42.5625 42.5313 42.6875 44.3125 44.2813 44.7813 65504 65504 65504 65504 65504 65504 65504 65504 65504 65504 65504 65504 65504 65504 65504 65504 65504 65504 65504 65504 65504 65504 65504 65504 65504 65504 65504 65504 65504 65504 65504 65504 65504 65504 65504 65504 65504 65504 65504 65504 65504 65504 65504 65504 65504 65504 65504 65504 65504 65504 65504 65504 65504 65504 65504 65504 65504 65504 65504 65504 65504 65504 65504 65504 65504 65504 65504 65504 65504 65504 65504 65504 65504 65504 65504 65504 65504 65504 65504 65504 65504 65504 65504 65504 65504 65504 65504 65504 65504 65504 65504 65504 65504
65504 65504 65504 65504 65504 65504 65504 65504 65504 65504 65504 65504 65504 65504 65504 65504 65504 65504 65504 65504 65504 65504 65504 65504 65504 65504 65504 65504 65504 65504 65504 65504 65504 65504 65504 65504 65504 65504 65504 65504 65504 38.0938 37.9375 37.8125 37.6563 37.5313 37.4063 37.4375 37.4063 37.2813 37.125 37 36.875 36.75 36.3438 36.2188 36.0938 35.9688 35.9063 35.9375 35.8438 35.7188 35.625 35.5 35.375 35.25 34.875 34.75 34.625 34.5 34.4063 34.3125 34.3438 34.2813 34.1875 34.0625 33.9375 33.8438 33.7188 33.625 33.5 33.375 33.2813 33.1563 33.0625 32.9375 32.8438 32.75 32.625 32.5313 32.4063 32.3125 32.2188 32.0938 32 31.9063 31.8125 31.7031 31.6094 31.5 31.4063 31.3125 30.9844 30.8906 30.7813 30.6875 30.5938 30.5 30.4063 30.4375 30.5 30.5625 30.6406 30.5625 30.4688 30.3906 30.2969 30.2031 29.5 29.4063 29.3125 29.2344 29.1406 29.125 29.1875 29.2656 29.3281 29.3125 29.2344 29.1406 29.0625 28.9688 28.8906 28.2188 28.1406 28.0625 27.9844 27.8906 27.8125 27.7344 27.7031 27.7813 27.8438 27.9219 27.9219 27.8438 27.7656 27.7031 27.625 27.5469 27.4688 26.8281 26.7656 26.6875 26.625 26.5469 26.4844 26.5156 26.5938 26.6719 26.75 26.6719 26.6094 26.5313 26.4688 26.4063 26.3281 26.2656 25.6719 25.5938 25.5313 25.4688 25.4063 25.3438 25.2813 25.2188 25.2031 25.2813 25.2188 25.1563 25.0938 25.0313 24.9688 24.9063 24.8594 24.7969 24.7344 24.6719 24.625 24.5625 24.5 24.4531 24.3906 24.3438 24.2813 24.2344 24.1719 24.125 24.0625 24.0156 23.9531 23.9063 23.8594 23.7969 23.75 23.7031 23.6406 23.5938 23.5469 23.5 23.4531 23.4063 23.3438 23.2969 23.25 23.2031 23.1563 23.1094 23.0625 23.0156 22.9688 22.9375 22.7188 22.6719 22.625 22.5938 22.5469 22.5 22.4531 22.4219 22.375 22.3281 22.4375 22.5625 22.6719 22.6406 22.5938 22.5469 22.5156 22.4688 22.4375 22.3906 22.3594 22.3125 22.2813 22.2344 21.75 21.7188 21.6719 21.6406 21.6094 21.5625 21.5313 21.5 21.4688 21.5625 21.7031 21.8125 21.7813 21.7344 21.7031 21.6719 21.6406 21.6094 21.5781 21.5469 21.5156 21.4844 21.4531 21.0625 20.9531 20.9219 20.8906 20.8594 20.8438 20.8125 20.7813 20.75 20.7188 20.7031 20.6719 20.6406 20.625 20.7188 20.875 21.0313 21.1875 21.3594 22.6094 22.5938 22.5781 22.5469 22.5156 22.5 22.5938 22.7813 22.9688 24.2969 24.2656 24.2344 24.2188 24.1875 24.1875 24.4063 24.625 24.8438 25.5156 25.75 26 26.25 26.5 26.75 27.0156 27.2813 27.5469 27.8281 28.1094 28.3906 28.6875 28.7969 28.7969 29.1094 29.4219 30.375 30.5938 30.6406 30.75 31.0938 32 32.3125 32.2813 32.5625 32.9688 33.9375 34.1875 34.1875 34.625 35.6875 35.8438 36 36.4688 37.625 38.125 38.6563 39.1875 39.75 40.3125 40.625 40.8125 42.5313 42.5 42.6875 44.2813 44.25 44.75 65504 65504 65504 65504 65504 65504 65504 65504 65504 65504 65504 65504 65504 65504 65504 65504 65504 65504 65504 65504 65504 65504 65504 65504 65504 65504 65504 65504 65504 65504 65504 65504 65504 65504 65504 65504 65504 65504 65504 65504 65504 65504 65504 65504 65504 65504 65504 65504 65504 65504 65504 65504 65504 65504 65504 65504 65504 65504 65504 65504 65504 65504 65504 65504 65504 65504 65504 65504 65504 65504 65504 65504 65504 65504 65504 65504 65504 65504 65504 65504 65504 65504 65504 65504 65504 65504 65504 65504 65504 65504 65504 65504 65504
65504 65504 65504 65504 65504 65504 65504 65504 65504 65504 65504 65504 65504 65504 65504 65504 65504 65504 65504 65504 65504 65504 65504 65504 65504 65504 65504 65504 65504 65504 65504 65504 65504 65504 65504 65504 65504 65504 65504 65504 65504 38.0625 37.9375 37.8125 37.6563 37.5313 37.4063 37.4063 37.4063 37.25 37.125 37 36.875 36.75 36.3438 36.2188 36.0938 35.9688 35.875 35.9375 35.8438 35.7188 35.5938 35.4688 35.3438 35.2188 34.875 34.75 34.625 34.5 34.375 34.2813 34.3438 34.2813 34.1563 34.0625 33.9375 33.8125 33.7188 33.5938 33.5 33.375 33.2813 33.1563 33.0625 32.9375 32.8438 32.7188 32.625 32.5 32.4063 32.3125 32.1875 32.0938 32 31.8906 31.7969 31.6875 31.5938 31.5 31.3906 31.2969 30.9688 30.875 30.7813 30.6875 30.5938 30.4844 30.3906 30.4219 30.4844 30.5469 30.625 30.5625 30.4688 30.375 30.2813 30.1875 29.4844 29.3906 29.3125 29.2188 29.125 29.1094 29.1719 29.25 29.3125 29.2969 29.2188 29.125 29.0469 28.9688 28.875 28.2031 28.125 28.0469 27.9688 27.8906 27.8125 27.7344 27.6875 27.7656 27.8281 27.9063 27.9219 27.8438 27.7656 27.6875 27.6094 27.5313 27.4531 26.8281 26.75 26.6719 26.6094 26.5313 26.4688 26.5 26.5781 26.6563 26.7344 26.6719 26.5938 26.5313 26.4531 26.3906 26.3281 26.25 25.6563 25.5938 25.5156 25.4531 25.3906 25.3281 25.2656 25.2031 25.1875 25.2656 25.2031 25.1406 25.0781 25.0156 24.9531 24.9063 24.8438 24.7813 24.7188 24.6719 24.6094 24.5469 24.5 24.4375 24.375 24.3281 24.2656 24.2188 24.1563 24.1094 24.0469 24 23.9531 23.8906 23.8438 23.7969 23.7344 23.6875 23.6406 23.5781 23.5313 23.4844 23.4375 23.3906 23.3438 23.2969 23.25 23.2031 23.1563 23.1094 23.0625 23.0156 22.9688 22.9219 22.7031 22.6719 22.625 22.5781 22.5313 22.4844 22.4531 22.4063 22.3594 22.3281 22.4375 22.5469 22.6563 22.625 22.5781 22.5469 22.5 22.4531 22.4219 22.375 22.3438 22.2969 22.2656 22.2344 21.7344 21.7031 21.6563 21.625 21.5938 21.5625 21.5156 21.4844 21.4531 21.5469 21.6875 21.7969 21.4063 21.375 21.3281 21.2969 21.2656 21.2344 21.2031 21.1719 21.1406 21.1094 21.0781 21.0469 20.9375 20.9063 20.8906 20.8594 20.8281 20.7969 20.7656 20.7344 20.7188 20.6875 20.6563 20.6406 20.6094 20.7031 20.8594 21.0156 21.1719 21.3438 22.6094 22.5938 22.5625 22.5313 22.5 22.4844 22.5781 22.7656 22.9531 24.2813 24.25 24.2188 24.2031 24.1719 24.1719 24.3906 24.6094 24.8438 25.5 25.75 25.9844 26.2344 26.4844 26.7344 27 27.2656 27.5313 27.8125 28.0938 28.3906 28.6719 28.7813 28.7813 29.0938 29.4063 30.6875 30.6563 30.625 30.7344 31.0781 31.9844 32.2813 32.25 32.5625 32.9375 33.9375 34.1875 34.1875 34.625 35.6875 35.8438 36 36.4688 37.5938 38.125 38.6563 39.1875 39.75 40.3125 40.625 40.7813 42.5 42.5 42.6875 44.25 44.2188 44.75 65504 65504 65504 65504 65504 65504 65504 65504 65504 65504 65504 65504 65504 65504 65504 65504 65504 65504 65504 65504 65504 65504 65504 65504 65504 65504 65504 65504 65504 65504 65504 65504 65504 65504 65504 65504 65504 65504 65504 65504 65504 65504 65504 65504 65504 65504 65504 65504 65504 65504 65504 65504 65504 65504 65504 65504 65504 65504 65504 65504 65504 65504 65504 65504 65504 65504 65504 65504 65504 65504 65504 65504 65504 65504 65504 65504 65504 65504 65504 65504 65504 65504 65504 65504 65504 65504 65504 65504 65504 65504 65504 65504 65504
