65504 65504 65504 65504 65504 65504 65504 65504 65504 65504 65504 65504 65504 65504 65504 65504 34.875 34.7813 34.6875 34.5938 34.5 34.4063 34.3125 34.2188 34.125 34.0313 33.9375 33.8438 33.75 33.6563 33.5625 33.4688 33.4063 33.3125 33.2188 33.125 33.0313 32.9375 32.8438 32.7813 32.6875 32.5938 32.5 32.4063 32.3438 32.0938 31.9688 31.8906 31.8125 31.7188 31.6406 31.5625 31.4688 31.3906 31.3125 31.2188 31.1406 31.0625 30.9844 30.9063 30.8281 30.75 30.6563 30.5781 30.5 30.4219 30.3438 30.2656 30.1875 30.1094 30.0469 29.9688 29.8906 29.8125 29.7344 29.6563 29.5781 29.5156 29.4375 29.3594 29.2969 29.2188 29.1406 29.0781 29 28.9219 28.8594 28.7813 28.7188 28.6563 28.625 28.5781 28.5469 28.5156 28.4688 28.4375 28.3906 28.3594 28.3281 28.2813 28.25 28.1875 28.125 28.0625 28 27.9219 27.8594 27.7969 27.7344 27.6719 27.6094 27.5313 27.4688 27.4063 27.3438 27.2813 27.2188 27.1563 27.0938 27.0313 26.9688 26.9219 26.8594 26.7969 26.7344 26.6719 26.6094 26.5625 26.5 26.4375 26.375 26.3281 26.2656 26.2031 26.1563 26.0938 26.0313 25.9844 25.9219 25.875 25.8125 25.7656 25.7031 25.6563 25.5938 25.5469 25.4844 25.4375 25.3906 25.3281 25.2813 25.2344 25.1719 25.125 25.0781 25.0313 24.9688 24.9219 24.875 24.8281 24.7813 24.7344 24.6875 24.6406 24.5781 24.5313 24.4844 24.4375 24.3906 24.3438 24.3125 24.2656 24.2188 24.1719 24.125 24.0781 24.0313 23.9844 23.9531 23.9063 23.8594 23.8125 23.7813 23.7344 23.6875 23.6563 23.6094 23.5625 23.5313 23.4844 23.4531 23.4063 23.375 23.3281 23.2969 23.25 23.2188 23.1719 23.1406 23.0938 23.0625 23.0313 22.9844 22.9531 22.9219 22.875 22.8438 22.8125 22.7656 22.7344 22.7031 22.6719 22.6406 22.5938 22.5625 22.5313 22.5 22.4688 22.4375 22.4063 22.375 22.3438 22.3125 22.2813 22.25 22.2188 22.1875 22.1563 22.125 22.0938 22.0625 22.0469 22.0156 21.9844 21.9531 21.9219 21.9063 21.875 21.8438 21.8125 21.7969 21.7656 21.7344 21.7188 21.6875 21.6719 21.6406 21.6094 21.5938 21.5625 21.5469 21.5156 21.5 21.4688 21.4531 21.4219 21.4063 21.375 21.3594 21.3438 21.3125 21.2969 21.2813 21.25 21.2344 21.2188 21.1875 21.1719 21.1563 21.1406 21.1094 21.0938 21.0781 21.0625 21.0469 21.0313 21 20.9844 20.9688 20.9531 20.9375 20.9219 20.9063 20.8906 20.875 20.8594 20.8438 20.8281 20.8125 20.7969 20.7813 20.7656 20.75 20.75 20.7344 20.7188 20.7031 20.6875 20.6719 20.6719 20.6563 20.6406 20.625 20.625 20.6094 20.5938 20.5781 20.5781 20.5625 20.5469 20.5469 20.5313 20.5313 20.5156 20.5 20.5 20.4844 20.4844 20.4688 20.4688 20.4531 20.4531 20.4375 20.4375 20.7188 21.3281 21.9531 22.6406 23.3594 24.1094 24.9375 25.5469 25.5625 25.5781 25.5938 26.375 32.6563 34.0938 35.6563 37.375 39.25 41.3438 46.0938 46.2188 65504 65504 65504 65504 65504 65504 65504 65504 65504 65504 65504 65504 65504 65504 65504 65504 65504 65504 65504 65504 65504 65504 65504 65504 65504 65504 65504 65504 65504 65504 65504 65504 65504 65504 65504 65504 65504 65504 65504 65504 65504 65504 65504 65504 65504 65504 65504 65504 65504 65504 65504 65504 65504 65504 65504 65504 65504 65504 65504 65504 65504 65504 65504 65504 65504 65504 65504 65504 65504 65504 65504 65504 65504 65504 65504 65504 65504 65504 65504 65504 65504 65504 65504 65504 65504 65504 65504 65504 65504 65504 65504 65504 65504 65504 65504 65504 65504 65504 65504 65504 65504
65504 65504 65504 65504 65504 65504 65504 65504 65504 65504 65504 65504 65504 65504 65504 65504 34.9063 34.8125 34.7188 34.625 34.5313 34.4375 34.3438 34.25 34.1563 34.0625 33.9688 33.875 33.7813 33.6875 33.5938 33.5 33.4063 33.3125 33.2188 33.125 33.0625 32.9688 32.875 32.7813 32.6875 32.625 32.5313 32.4375 32.3438 32.25 32.1875 32.0938 32 31.9375 31.8438 31.7656 31.6875 31.5938 31.5156 31.4375 31.3438 31.2656 31.1563 30.9219 30.8438 30.7656 30.6719 30.5938 30.5156 30.4375 30.3594 30.2813 30.2031 30.125 30.0625 29.9844 29.9063 29.8281 29.75 29.6719 29.6094 29.5313 29.4531 29.375 29.3125 29.2344 29.1563 29.0938 29.0156 28.9375 28.875 28.7969 28.7344 28.6563 28.5938 28.5156 28.4531 28.375 28.3125 28.25 28.1719 28.1094 28.0469 27.9688 27.9063 27.8438 27.7813 27.7031 27.6719 27.6406 27.5938 27.5625 27.5313 27.5 27.4688 27.4219 27.3906 27.3594 27.3281 27.2969 27.2344 27.1719 27.1094 27.0469 26.9844 26.9375 26.875 26.8125 26.75 26.6875 26.625 26.5781 26.5156 26.4531 26.3906 26.3438 26.2813 26.2188 26.1719 26.1094 26.0469 26 25.9375 25.8906 25.8281 25.7813 25.7188 25.6719 25.6094 25.5625 25.5 25.4531 25.4063 25.3438 25.2969 25.25 25.1875 25.1406 25.0938 25.0469 24.9844 24.9375 24.8906 24.8438 24.7969 24.75 24.7031 24.6406 24.5938 24.5469 24.5 24.4531 24.4063 24.3594 24.3125 24.2813 24.2344 24.1875 24.1406 24.0938 24.0469 24 23.9688 23.9219 23.875 23.8281 23.7969 23.75 23.7031 23.6719 23.625 23.5781 23.5469 23.5 23.4688 23.4219 23.375 23.3438 23.2969 23.2656 23.2188 23.1875 23.1563 23.1094 23.0781 23.0313 23 22.9688 22.9219 22.8906 22.8594 22.8281 22.7813 22.75 22.7188 22.6875 22.6563 22.6094 22.5781 22.5469 22.5156 22.4844 22.4531 22.4219 22.3906 22.3594 22.3281 22.2969 22.2656 22.2344 22.2031 22.1719 22.1406 22.1094 22.0781 22.0625 22.0313 22 21.9688 21.9375 21.9219 21.8906 21.8594 21.8281 21.8125 21.7813 21.75 21.7344 21.7031 21.6719 21.6563 21.625 21.6094 21.5781 21.5625 21.5313 21.5156 21.4844 21.4688 21.4375 21.4219 21.3906 21.375 21.3594 21.3281 21.3125 21.2813 21.2656 21.25 21.2344 21.2031 21.1875 21.1719 21.1406 21.125 21.1094 21.0938 21.0781 21.0625 21.0313 21.0156 21 20.9844 20.9688 20.9531 20.9375 20.9219 20.9063 20.8906 20.875 20.8594 20.8438 20.8281 20.8125 20.7969 20.7813 20.7656 20.75 20.75 20.7344 20.7188 20.7031 20.6875 20.6719 20.6719 20.6563 20.6406 20.625 20.625 20.6094 20.5938 20.5938 20.5781 20.5625 20.5625 20.5469 20.5313 20.5313 20.5156 20.5156 20.5 20.4844 20.4844 20.4688 20.4688 20.4531 20.4531 20.4375 20.7344 21.3438 21.9844 22.6563 23.375 24.1406 24.9531 25.1563 25.1719 25.1875 25.3906 26.4063 32.7188 34.125 35.7188 37.4063 39.3125 41.375 46.125 46.2813 65504 65504 65504 65504 65504 65504 65504 65504 65504 65504 65504 65504 65504 65504 65504 65504 65504 65504 65504 65504 65504 65504 65504 65504 65504 65504 65504 65504 65504 65504 65504 65504 65504 65504 65504 65504 65504 65504 65504 65504 65504 65504 65504 65504 65504 65504 65504 65504 65504 65504 65504 65504 65504 65504 65504 65504 65504 65504 65504 65504 65504 65504 65504 65504 65504 65504 65504 65504 65504 65504 65504 65504 65504 65504 65504 65504 65504 65504 65504 65504 65504 65504 65504 65504 65504 65504 65504 65504 65504 65504 65504 65504 65504 65504 65504 65504 65504 65504 65504 65504 65504
65504 65504 65504 65504 65504 65504 65504 65504 65504 65504 65504 65504 65504 65504 65504 65504 34.9375 34.8438 34.7188 34.625 34.5313 34.4375 34.3438 34.25 34.1563 34.0625 33.9688 33.875 33.7813 33.6875 33.625 33.5313 33.4375 33.3438 33.25 33.1563 33.0625 32.9688 32.9063 32.8125 32.7188 32.625 32.5313 32.4688 32.375 32.2813 32.1875 32.125 32.0313 31.9531 31.8594 31.7813 31.7031 31.6094 31.5313 31.4531 31.375 31.2813 31.2031 31.125 31.0469 30.9688 30.8906 30.7969 30.7188 30.6406 30.5625 30.4844 30.4063 30.3281 30.25 30.1719 30.0625 29.8438 29.7656 29.6875 29.625 29.5469 29.4688 29.3906 29.3281 29.25 29.1719 29.1094 29.0313 28.9531 28.8906 28.8125 28.75 28.6719 28.6094 28.5313 28.4688 28.3906 28.3281 28.2656 28.1875 28.125 28.0625 27.9844 27.9219 27.8594 27.7969 27.7188 27.6563 27.5938 27.5313 27.4688 27.4063 27.3281 27.2656 27.2031 27.1406 27.0781 27.0156 26.9531 26.8906 26.8281 26.7813 26.75 26.7188 26.6875 26.6563 26.625 26.5938 26.5625 26.5313 26.5 26.4688 26.4375 26.4063 26.3594 26.2969 26.2344 26.1875 26.125 26.0625 26.0156 25.9531 25.9063 25.8438 25.7969 25.7344 25.6875 25.625 25.5781 25.5156 25.4688 25.4219 25.3594 25.3125 25.2656 25.2031 25.1563 25.1094 25.0625 25 24.9531 24.9063 24.8594 24.8125 24.7656 24.7031 24.6563 24.6094 24.5625 24.5156 24.4688 24.4219 24.375 24.3281 24.2813 24.25 24.2031 24.1563 24.1094 24.0625 24.0156 23.9844 23.9375 23.8906 23.8438 23.8125 23.7656 23.7188 23.6719 23.6406 23.5938 23.5625 23.5156 23.4688 23.4375 23.3906 23.3594 23.3125 23.2813 23.2344 23.2031 23.1719 23.125 23.0938 23.0469 23.0156 22.9844 22.9375 22.9063 22.875 22.8281 22.7969 22.7656 22.7344 22.7031 22.6563 22.625 22.5938 22.5625 22.5313 22.5 22.4688 22.4375 22.4063 22.375 22.3438 22.3125 22.2813 22.25 22.2188 22.1875 22.1563 22.125 22.0938 22.0625 22.0469 22.0156 21.9844 21.9531 21.9219 21.9063 21.875 21.8438 21.8281 21.7969 21.7656 21.75 21.7188 21.6875 21.6719 21.6406 21.625 21.5938 21.5625 21.5469 21.5156 21.5 21.4688 21.4531 21.4375 21.4063 21.3906 21.3594 21.3438 21.3281 21.2969 21.2813 21.2656 21.2344 21.2188 21.2031 21.1875 21.1563 21.1406 21.125 21.1094 21.0938 21.0625 21.0469 21.0313 21.0156 21 20.9844 20.9688 20.9531 20.9375 20.9219 20.9063 20.8906 20.875 20.8594 20.8438 20.8281 20.8125 20.7969 20.7813 20.7656 20.75 20.7344 20.7344 20.7188 20.7031 20.6875 20.6719 20.6719 20.6563 20.6406 20.625 20.625 20.6094 20.5938 20.5938 20.5781 20.5625 20.5625 20.5469 20.5469 20.5313 20.5156 20.5156 20.5 20.5 20.4844 20.4844 20.4688 20.4688 20.4531 20.7656 21.3594 22 22.6719 23.3906 24.1563 24.7656 24.7813 24.7969 24.7969 25.4063 32.4375 32.75 34.1875 35.75 37.4688 39.3438 41.4375 46.125 46.3438 65504 65504 65504 65504 65504 65504 65504 65504 65504 65504 65504 65504 65504 65504 65504 65504 65504 65504 65504 65504 65504 65504 65504 65504 65504 65504 65504 65504 65504 65504 65504 65504 65504 65504 65504 65504 65504 65504 65504 65504 65504 65504 65504 65504 65504 65504 65504 65504 65504 65504 65504 65504 65504 65504 65504 65504 65504 65504 65504 65504 65504 65504 65504 65504 65504 65504 65504 65504 65504 65504 65504 65504 65504 65504 65504 65504 65504 65504 65504 65504 65504 65504 65504 65504 65504 65504 65504 65504 65504 65504 65504 65504 65504 65504 65504 65504 65504 65504 65504 65504 65504
65504 65504 65504 65504 65504 65504 65504 65504 65504 65504 65504 65504 65504 65504 65504 65504 65504 34.9063 34.8125 34.7188 34.625 34.5 34.4063 34.3125 34.2188 34.125 34.0313 33.9063 33.8125 33.7188 33.625 33.5313 33.4375 33.3438 33.2813 33.1875 33.0938 33 32.9063 32.8125 32.7188 32.6563 32.5625 32.4688 32.375 32.3125 32.2188 32.125 32.0313 31.9688 31.8906 31.7969 31.7188 31.6406 31.5469 31.4688 31.3906 31.2969 31.2188 31.1406 31.0625 30.9844 30.9063 30.8281 30.7344 30.6563 30.5781 30.5 30.4219 30.3438 30.2656 30.2031 30.125 30.0469 29.9688 29.8906 29.8125 29.7344 29.6719 29.5938 29.5156 29.4375 29.375 29.2969 29.2188 29.1563 29.0156 28.8281 28.7656 28.6875 28.625 28.5469 28.4844 28.4063 28.3438 28.2813 28.2031 28.1406 28.0781 28 27.9375 27.875 27.8125 27.7344 27.6719 27.6094 27.5469 27.4844 27.4219 27.3438 27.2813 27.2188 27.1563 27.0938 27.0313 26.9688 26.9063 26.8438 26.7813 26.7344 26.6719 26.6094 26.5469 26.4844 26.4219 26.375 26.3125 26.25 26.1875 26.1406 26.0781 26.0156 25.9688 25.9219 25.9063 25.875 25.8438 25.8125 25.7813 25.7656 25.7344 25.7031 25.6719 25.6563 25.625 25.5938 25.5313 25.4844 25.4375 25.375 25.3281 25.2813 25.2188 25.1719 25.125 25.0781 25.0156 24.9688 24.9219 24.875 24.8281 24.7813 24.7188 24.6719 24.625 24.5781 24.5313 24.4844 24.4375 24.3906 24.3438 24.2969 24.2656 24.2188 24.1719 24.125 24.0781 24.0313 23.9844 23.9531 23.9063 23.8594 23.8125 23.7813 23.7344 23.6875 23.6563 23.6094 23.5781 23.5313 23.4844 23.4531 23.4063 23.375 23.3281 23.2969 23.25 23.2188 23.1719 23.1406 23.1094 23.0625 23.0313 23 22.9531 22.9219 22.8906 22.8438 22.8125 22.7813 22.75 22.7188 22.6719 22.6406 22.6094 22.5781 22.5469 22.5156 22.4844 22.4531 22.4219 22.3906 22.3594 22.3281 22.2969 22.2656 22.2344 22.2031 22.1719 22.1406 22.1094 22.0781 22.0469 22.0313 22 21.9688 21.9375 21.9219 21.8906 21.8594 21.8281 21.8125 21.7813 21.75 21.7344 21.7031 21.6875 21.6563 21.625 21.6094 21.5781 21.5625 21.5313 21.5156 21.4844 21.4688 21.4375 21.4219 21.4063 21.375 21.3594 21.3281 21.3125 21.2969 21.2656 21.25 21.2344 21.2188 21.1875 21.1719 21.1563 21.1406 21.125 21.0938 21.0781 21.0625 21.0469 21.0313 21.0156 21 20.9844 20.9688 20.9375 20.9219 20.9063 20.8906 20.875 20.875 20.8594 20.8438 20.8281 20.8125 20.7969 20.7813 20.7656 20.75 20.7344 20.7344 20.7188 20.7031 20.6875 20.6719 20.6719 20.6563 20.6406 20.6406 20.625 20.6094 20.5938 20.5938 20.5781 20.5781 20.5625 20.5469 20.5469 20.5313 20.5313 20.5156 20.5 20.5 20.4844 20.4844 20.4688 20.4688 20.7813 21.375 22.0156 22.7031 23.4219 24.1875 24.3906 24.4063 24.4219 24.4844 25.4375 32.4375 32.7813 34.2188 35.7813 37.5 39.4063 41.5 46.1563 46.4063 65504 65504 65504 65504 65504 65504 65504 65504 65504 65504 65504 65504 65504 65504 65504 65504 65504 65504 65504 65504 65504 65504 65504 65504 65504 65504 65504 65504 65504 65504 65504 65504 65504 65504 65504 65504 65504 65504 65504 65504 65504 65504 65504 65504 65504 65504 65504 65504 65504 65504 65504 65504 65504 65504 65504 65504 65504 65504 65504 65504 65504 65504 65504 65504 65504 65504 65504 65504 65504 65504 65504 65504 65504 65504 65504 65504 65504 65504 65504 65504 65504 65504 65504 65504 65504 65504 65504 65504 65504 65504 65504 65504 65504 65504 65504 65504 65504 65504 65504 65504 65504
65504 65504 65504 65504 65504 65504 65504 65504 65504 65504 65504 65504 65504 65504 65504 65504 65504 65504 34.9063 34.7813 34.6875 34.5938 34.5 34.4063 34.2813 34.1875 34.0938 34 33.9063 33.8125 33.7188 33.625 33.5313 33.4375 33.3438 33.2188 33.125 33.0313 32.9375 32.875 32.7813 32.6875 32.5938 32.5 32.4063 32.3125 32.2188 32.1563 32.0625 31.9844 31.9063 31.8125 31.7344 31.6563 31.5625 31.4844 31.4063 31.3281 31.2344 31.1563 31.0781 31 30.9219 30.8438 30.7656 30.6875 30.5938 30.5156 30.4375 30.3594 30.2969 30.2188 30.1406 30.0625 29.9844 29.9063 29.8281 29.7656 29.6875 29.6094 29.5313 29.4688 29.3906 29.3125 29.25 29.1719 29.0938 29.0313 28.9531 28.8906 28.8125 28.75 28.6719 28.6094 28.5313 28.4688 28.3906 28.3281 28.2656 28.1875 28.0469 27.8906 27.8281 27.75 27.6875 27.625 27.5625 27.5 27.4375 27.375 27.2969 27.2344 27.1719 27.1094 27.0469 26.9844 26.9219 26.8594 26.8125 26.75 26.6875 26.625 26.5625 26.5 26.4375 26.3906 26.3281 26.2656 26.2031 26.1563 26.0938 26.0313 25.9844 25.9219 25.875 25.8125 25.75 25.7031 25.6406 25.5938 25.5313 25.4844 25.4219 25.375 25.3281 25.2656 25.2188 25.1719 25.1406 25.1094 25.0938 25.0625 25.0469 25.0156 24.9844 24.9688 24.9375 24.9219 24.8906 24.875 24.8438 24.7969 24.7344 24.6875 24.6406 24.5938 24.5469 24.5 24.4531 24.4063 24.3594 24.3125 24.2656 24.2344 24.1875 24.1406 24.0938 24.0469 24 23.9688 23.9219 23.875 23.8281 23.7969 23.75 23.7031 23.6719 23.625 23.5781 23.5469 23.5 23.4688 23.4219 23.3906 23.3438 23.3125 23.2656 23.2344 23.1875 23.1563 23.125 23.0781 23.0469 23.0156 22.9688 22.9375 22.9063 22.8594 22.8281 22.7969 22.7656 22.7188 22.6875 22.6563 22.625 22.5938 22.5625 22.5313 22.5 22.4531 22.4219 22.3906 22.3594 22.3281 22.2969 22.2813 22.25 22.2188 22.1875 22.1563 22.125 22.0938 22.0625 22.0469 22.0156 21.9844 21.9531 21.9219 21.9063 21.875 21.8438 21.8281 21.7969 21.7656 21.75 21.7188 21.6875 21.6719 21.6406 21.625 21.5938 21.5781 21.5469 21.5313 21.5 21.4844 21.4531 21.4375 21.4063 21.3906 21.375 21.3438 21.3281 21.3125 21.2813 21.2656 21.25 21.2344 21.2031 21.1875 21.1719 21.1563 21.125 21.1094 21.0938 21.0781 21.0625 21.0469 21.0313 21.0156 20.9844 20.9688 20.9531 20.9375 20.9219 20.9063 20.8906 20.875 20.8594 20.8438 20.8438 20.8281 20.8125 20.7969 20.7813 20.7656 20.75 20.7344 20.7344 20.7188 20.7031 20.6875 20.6875 20.6719 20.6563 20.6406 20.6406 20.625 20.6094 20.6094 20.5938 20.5781 20.5781 20.5625 20.5625 20.5469 20.5313 20.5313 20.5156 20.5156 20.5 20.5 20.4844 20.4844 20.7969 21.4063 22.0469 22.7188 23.4375 24.0156 24.0313 24.0469 24.0625 24.5 27.0469 32.4688 32.8125 34.25 35.8438 37.5625 39.4375 41.5313 46.1875 46.4688 65504 65504 65504 65504 65504 65504 65504 65504 65504 65504 65504 65504 65504 65504 65504 65504 65504 65504 65504 65504 65504 65504 65504 65504 65504 65504 65504 65504 65504 65504 65504 65504 65504 65504 65504 65504 65504 65504 65504 65504 65504 65504 65504 65504 65504 65504 65504 65504 65504 65504 65504 65504 65504 65504 65504 65504 65504 65504 65504 65504 65504 65504 65504 65504 65504 65504 65504 65504 65504 65504 65504 65504 65504 65504 65504 65504 65504 65504 65504 65504 65504 65504 65504 65504 65504 65504 65504 65504 65504 65504 65504 65504 65504 65504 65504 65504 65504 65504 65504 65504 65504
65504 65504 65504 65504 65504 65504 65504 65504 65504 65504 65504 65504 65504 65504 65504 65504 65504 65504 34.9688 34.875 34.7813 34.6875 34.5625 34.4688 34.375 34.2813 34.1875 34.0938 34 33.875 33.7813 33.6875 33.5938 33.5 33.4063 33.3125 33.2188 33.125 33.0313 32.9375 32.8438 32.75 32.6563 32.5625 32.4688 32.375 32.3125 32.2188 32.125 32.0313 31.9531 31.8594 31.7656 31.6875 31.5938 31.5156 31.4219 31.3438 31.25 31.1719 31.0938 31.0156 30.9375 30.8594 30.7813 30.7031 30.625 30.5469 30.4688 30.3906 30.3125 30.2344 30.1563 30.0781 30 29.9219 29.8438 29.7813 29.7031 29.625 29.5469 29.4844 29.4063 29.3281 29.2656 29.1875 29.1094 29.0469 28.9688 28.9063 28.8281 28.7656 28.6875 28.625 28.5469 28.4844 28.4063 28.3438 28.2813 28.2031 28.1406 28.0781 28.0156 27.9375 27.875 27.8125 27.75 27.6875 27.6094 27.5469 27.4844 27.4219 27.3594 27.2969 27.1406 27 26.9375 26.875 26.8281 26.7656 26.7031 26.6406 26.5781 26.5156 26.4531 26.4063 26.3438 26.2813 26.2188 26.1719 26.1094 26.0469 26 25.9375 25.8906 25.8281 25.7656 25.7188 25.6563 25.6094 25.5469 25.5 25.4375 25.3906 25.3438 25.2813 25.2344 25.1875 25.125 25.0781 25.0313 24.9688 24.9219 24.875 24.8281 24.7656 24.7188 24.6719 24.625 24.5781 24.5313 24.4844 24.4375 24.4219 24.4063 24.375 24.3594 24.3281 24.3125 24.2969 24.2656 24.25 24.2344 24.2031 24.1875 24.1563 24.1094 24.0625 24.0156 23.9844 23.9375 23.8906 23.8438 23.8125 23.7656 23.7188 23.6875 23.6406 23.5938 23.5625 23.5156 23.4844 23.4375 23.4063 23.3594 23.3281 23.2813 23.25 23.2031 23.1719 23.1406 23.0938 23.0625 23.0156 22.9844 22.9531 22.9219 22.875 22.8438 22.8125 22.7813 22.7344 22.7031 22.6719 22.6406 22.6094 22.5781 22.5469 22.5 22.4688 22.4375 22.4063 22.375 22.3438 22.3125 22.2813 22.2656 22.2344 22.2031 22.1719 22.1406 22.1094 22.0781 22.0469 22.0313 22 21.9688 21.9375 21.9219 21.8906 21.8594 21.8281 21.8125 21.7813 21.7656 21.7344 21.7031 21.6875 21.6563 21.6406 21.6094 21.5938 21.5625 21.5469 21.5156 21.5 21.4688 21.4531 21.4219 21.4063 21.3906 21.3594 21.3438 21.3281 21.2969 21.2813 21.2656 21.2344 21.2188 21.2031 21.1875 21.1563 21.1406 21.125 21.1094 21.0938 21.0781 21.0625 21.0313 21.0156 21 20.9844 20.9688 20.9531 20.9375 20.9219 20.9063 20.8906 20.875 20.8594 20.8438 20.8281 20.8281 20.8125 20.7969 20.7813 20.7656 20.75 20.75 20.7344 20.7188 20.7031 20.6875 20.6875 20.6719 20.6563 20.6563 20.6406 20.625 20.6094 20.6094 20.5938 20.5938 20.5781 20.5625 20.5625 20.5469 20.5469 20.5313 20.5313 20.5156 20.5156 20.5 20.5 20.8125 21.4219 22.0625 22.7344 23.4688 23.6719 23.6875 23.7031 23.7188 24.5313 32.4375 32.5 32.8438 34.2813 35.875 37.5938 39.5 41.5938 46.2188 46.5313 65504 65504 65504 65504 65504 65504 65504 65504 65504 65504 65504 65504 65504 65504 65504 65504 65504 65504 65504 65504 65504 65504 65504 65504 65504 65504 65504 65504 65504 65504 65504 65504 65504 65504 65504 65504 65504 65504 65504 65504 65504 65504 65504 65504 65504 65504 65504 65504 65504 65504 65504 65504 65504 65504 65504 65504 65504 65504 65504 65504 65504 65504 65504 65504 65504 65504 65504 65504 65504 65504 65504 65504 65504 65504 65504 65504 65504 65504 65504 65504 65504 65504 65504 65504 65504 65504 65504 65504 65504 65504 65504 65504 65504 65504 65504 65504 65504 65504 65504 65504 65504
65504 65504 65504 65504 65504 65504 65504 65504 65504 65504 65504 65504 65504 65504 65504 65504 65504 65504 65504 65504 34.875 34.75 34.6563 34.5625 34.4688 34.375 34.25 34.1563 34.0625 33.9688 33.875 33.7813 33.6875 33.5938 33.5 33.4063 33.3125 33.2188 33.125 33.0313 32.9375 32.8438 32.75 32.6563 32.5625 32.4688 32.375 32.2813 32.1875 32.0938 32 31.9375 31.8438 31.7656 31.6719 31.5781 31.5 31.4063 31.3281 31.2344 31.1563 31.0625 30.9844 30.9063 30.8125 30.7344 30.6563 30.5625 30.4844 30.4063 30.3281 30.25 30.1719 30.0938 30.0156 29.9375 29.875 29.7969 29.7188 29.6406 29.5625 29.5 29.4219 29.3438 29.2813 29.2031 29.125 29.0625 28.9844 28.9219 28.8438 28.7813 28.7031 28.6406 28.5625 28.5 28.4375 28.3594 28.2969 28.2344 28.1563 28.0938 28.0313 27.9531 27.8906 27.8281 27.7656 27.7031 27.625 27.5625 27.5 27.4375 27.375 27.3125 27.25 27.1875 27.125 27.0625 27 26.9375 26.875 26.8125 26.75 26.7031 26.6406 26.5781 26.5156 26.4531 26.2969 26.1875 26.125 26.0625 26.0156 25.9531 25.9063 25.8438 25.7813 25.7344 25.6719 25.625 25.5625 25.5156 25.4531 25.4063 25.3594 25.2969 25.25 25.2031 25.1406 25.0938 25.0469 24.9844 24.9375 24.8906 24.8438 24.7813 24.7344 24.6875 24.6406 24.5938 24.5469 24.5 24.4531 24.4063 24.3594 24.3125 24.2656 24.2188 24.1719 24.125 24.0781 24.0313 23.9844 23.9375 23.8906 23.8594 23.8125 23.7813 23.7656 23.75 23.7344 23.7188 23.6875 23.6719 23.6563 23.6406 23.625 23.6094 23.5938 23.5781 23.5313 23.5 23.4531 23.4219 23.375 23.3438 23.2969 23.2656 23.2188 23.1875 23.1406 23.1094 23.0781 23.0313 23 22.9688 22.9219 22.8906 22.8594 22.8281 22.7969 22.75 22.7188 22.6875 22.6563 22.625 22.5938 22.5625 22.5156 22.4844 22.4531 22.4219 22.3906 22.3594 22.3281 22.2969 22.2656 22.25 22.2188 22.1875 22.1563 22.125 22.0938 22.0625 22.0469 22.0156 21.9844 21.9531 21.9375 21.9063 21.875 21.8438 21.8281 21.7969 21.7656 21.75 21.7188 21.7031 21.6719 21.6563 21.625 21.5938 21.5781 21.5469 21.5313 21.5156 21.4844 21.4688 21.4375 21.4219 21.3906 21.375 21.3594 21.3281 21.3125 21.2969 21.2813 21.25 21.2344 21.2188 21.2031 21.1719 21.1563 21.1406 21.125 21.1094 21.0938 21.0625 21.0469 21.0313 21.0156 21 20.9844 20.9688 20.9531 20.9375 20.9219 20.9063 20.8906 20.875 20.8594 20.8438 20.8281 20.8281 20.8125 20.7969 20.7813 20.7656 20.75 20.75 20.7344 20.7188 20.7031 20.6875 20.6875 20.6719 20.6563 20.6563 20.6406 20.625 20.625 20.6094 20.5938 20.5938 20.5781 20.5781 20.5625 20.5469 20.5469 20.5313 20.5313 20.5156 20.5156 20.5 20.8281 21.4375 22.0781 22.7656 23.3281 23.3438 23.3438 23.3594 23.6719 24.5625 32.4688 32.5 32.875 34.3438 35.9063 37.6563 39.5313 41.6563 46.25 46.5938 65504 65504 65504 65504 65504 65504 65504 65504 65504 65504 65504 65504 65504 65504 65504 65504 65504 65504 65504 65504 65504 65504 65504 65504 65504 65504 65504 65504 65504 65504 65504 65504 65504 65504 65504 65504 65504 65504 65504 65504 65504 65504 65504 65504 65504 65504 65504 65504 65504 65504 65504 65504 65504 65504 65504 65504 65504 65504 65504 65504 65504 65504 65504 65504 65504 65504 65504 65504 65504 65504 65504 65504 65504 65504 65504 65504 65504 65504 65504 65504 65504 65504 65504 65504 65504 65504 65504 65504 65504 65504 65504 65504 65504 65504 65504 65504 65504 65504 65504 65504 65504
65504 65504 65504 65504 65504 65504 65504 65504 65504 65504 65504 65504 65504 65504 65504 65504 65504 65504 65504 65504 65504 34.9688 34.875 34.7813 34.6875 34.5938 34.5 34.5313 34.5313 34.5938 65504 65504 33.75 33.6563 33.5625 33.4688 33.375 33.2813 33.1875 33.0938 33 32.9063 32.8125 32.7188 32.625 32.5313 32.4375 32.375 32.2813 32.1875 32.0938 32 31.9219 31.8281 31.75 31.6563 31.5781 31.4844 31.3906 31.3125 31.2344 31.1406 31.0625 30.9688 30.8906 30.8125 30.7188 30.6406 30.5625 30.4688 30.3906 30.3125 30.2344 30.1563 30.0625 29.9844 29.9063 29.8281 29.75 29.6719 29.5938 29.5156 29.4375 29.3594 29.2969 29.2188 29.1563 29.0781 29 28.9375 28.8594 28.7969 28.7188 28.6563 28.5781 28.5156 28.4531 28.375 28.3125 28.25 28.1719 28.1094 28.0469 27.9688 27.9063 27.8438 27.7813 27.7188 27.6563 27.5781 27.5156 27.4531 27.3906 27.3281 27.2656 27.2031 27.1406 27.0781 27.0156 26.9531 26.8906 26.8281 26.7813 26.7188 26.6563 26.5938 26.5313 26.4844 26.4219 26.3594 26.2969 26.25 26.1875 26.125 26.0781 26.0156 25.9688 25.9063 25.8438 25.7969 25.7344 25.6875 25.5156 25.4219 25.375 25.3125 25.2656 25.2188 25.1563 25.1094 25.0625 25 24.9531 24.9063 24.8594 24.7969 24.75 24.7031 24.6563 24.6094 24.5625 24.5156 24.4688 24.4219 24.375 24.3281 24.2813 24.2344 24.1875 24.1406 24.0938 24.0469 24 23.9531 23.9063 23.875 23.8281 23.7813 23.7344 23.6875 23.6563 23.6094 23.5625 23.5313 23.4844 23.4375 23.4063 23.3594 23.3281 23.2813 23.2344 23.2031 23.1875 23.1719 23.1563 23.1406 23.125 23.1094 23.0938 23.0938 23.0781 23.0625 23.0469 23.0313 23.0156 22.9844 22.9375 22.9063 22.875 22.8438 22.7969 22.7656 22.7344 22.7031 22.6719 22.6406 22.6094 22.5625 22.5313 22.5 22.4688 22.4375 22.4063 22.375 22.3438 22.3125 22.2813 22.25 22.2344 22.2031 22.1719 22.1406 22.1094 22.0781 22.0625 22.0313 22 21.9688 21.9375 21.9219 21.8906 21.8594 21.8438 21.8125 21.7813 21.7656 21.7344 21.7188 21.6875 21.6563 21.6406 21.6094 21.5938 21.5625 21.5469 21.5156 21.5 21.4844 21.4531 21.4375 21.4063 21.3906 21.375 21.3438 21.3281 21.3125 21.2813 21.2656 21.25 21.2344 21.2031 21.1875 21.1719 21.1563 21.1406 21.125 21.0938 21.0781 21.0625 21.0469 21.0313 21.0156 21 20.9844 20.9688 20.9531 20.9375 20.9219 20.9063 20.8906 20.875 20.8594 20.8438 20.8281 20.8281 20.8125 20.7969 20.7813 20.7656 20.75 20.75 20.7344 20.7188 20.7031 20.7031 20.6875 20.6719 20.6719 20.6563 20.6406 20.6406 20.625 20.6094 20.6094 20.5938 20.5781 20.5781 20.5625 20.5625 20.5469 20.5469 20.5313 20.5313 20.5156 20.8594 21.4531 22.1094 22.7813 23 23.0156 23.0313 23.0313 23.6875 29.3906 32.5 32.5313 32.9375 34.375 35.9688 37.6875 39.5938 41.6875 46.2813 46.6563 65504 65504 65504 65504 65504 65504 65504 65504 65504 65504 65504 65504 65504 65504 65504 65504 65504 65504 65504 65504 65504 65504 65504 65504 65504 65504 65504 65504 65504 65504 65504 65504 65504 65504 65504 65504 65504 65504 65504 65504 65504 65504 65504 65504 65504 65504 65504 65504 65504 65504 65504 65504 65504 65504 65504 65504 65504 65504 65504 65504 65504 65504 65504 65504 65504 65504 65504 65504 65504 65504 65504 65504 65504 65504 65504 65504 65504 65504 65504 65504 65504 65504 65504 65504 65504 65504 65504 65504 65504 65504 65504 65504 65504 65504 65504 65504 65504 65504 65504 65504 65504
65504 65504 65504 65504 65504 65504 65504 65504 65504 65504 65504 65504 65504 65504 65504 65504 65504 65504 65504 65504 65504 34.9688 34.875 34.7813 34.6875 34.5938 34.5 34.5625 34.5625 34.5938 65504 65504 65504 34.3125 65504 65504 65504 65504 65504 35.6563 65504 65504 65504 65504 32.7188 32.625 32.5313 32.4375 32.3438 32.25 32.1563 32.0938 32 31.9063 31.8281 31.7344 31.6406 31.5625 31.4688 31.3906 31.2969 31.2188 31.125 31.0469 30.9688 30.875 30.7969 30.7188 30.625 30.5469 30.4688 30.375 30.2969 30.2188 30.1406 30.0625 29.9844 29.9063 29.8281 29.75 29.6719 29.5938 29.5156 29.4375 29.3594 29.2813 29.2031 29.125 29.0469 28.9844 28.9063 28.8281 28.75 28.6875 28.6094 28.5313 28.4688 28.3906 28.3281 28.2656 28.1875 28.125 28.0625 28 27.9219 27.8594 27.7969 27.7344 27.6719 27.5938 27.5313 27.4688 27.4063 27.3438 27.2813 27.2188 27.1563 27.0938 27.0313 26.9688 26.9063 26.8594 26.7969 26.7344 26.6719 26.6094 26.5469 26.5 26.4375 26.375 26.3125 26.2656 26.2031 26.1406 26.0938 26.0313 25.9844 25.9219 25.8594 25.8125 25.75 25.7031 25.6563 25.5938 25.5469 25.4844 25.4375 25.375 25.3281 25.2813 25.2188 25.1719 25.125 25.0781 25.0156 24.9531 24.7813 24.7188 24.6719 24.625 24.5781 24.5313 24.4844 24.4375 24.3906 24.3438 24.2969 24.25 24.2031 24.1563 24.1094 24.0625 24.0156 23.9688 23.9219 23.8906 23.8438 23.7969 23.75 23.7031 23.6719 23.625 23.5781 23.5469 23.5 23.4531 23.4219 23.375 23.3438 23.2969 23.25 23.2188 23.1719 23.1406 23.0938 23.0625 23.0313 22.9844 22.9531 22.9063 22.875 22.8438 22.7969 22.7656 22.7344 22.6875 22.6719 22.6563 22.6563 22.6406 22.625 22.6094 22.5938 22.5938 22.5781 22.5625 22.5625 22.5469 22.5313 22.5156 22.4844 22.4531 22.4219 22.3906 22.3594 22.3281 22.2969 22.2656 22.25 22.2188 22.1875 22.1563 22.125 22.0938 22.0625 22.0469 22.0156 21.9844 21.9531 21.9375 21.9063 21.875 21.8594 21.8281 21.7969 21.7813 21.75 21.7344 21.7031 21.6719 21.6563 21.625 21.6094 21.5781 21.5625 21.5313 21.5156 21.5 21.4688 21.4531 21.4219 21.4063 21.3906 21.3594 21.3438 21.3281 21.2969 21.2813 21.2656 21.25 21.2188 21.2031 21.1875 21.1719 21.1563 21.125 21.1094 21.0938 21.0781 21.0625 21.0469 21.0313 21.0156 21 20.9844 20.9688 20.9531 20.9375 20.9219 20.9063 20.8906 20.875 20.8594 20.8438 20.8281 20.8281 20.8125 20.7969 20.7813 20.7656 20.7656 20.75 20.7344 20.7188 20.7188 20.7031 20.6875 20.6719 20.6719 20.6563 20.6406 20.6406 20.625 20.625 20.6094 20.5938 20.5938 20.5781 20.5781 20.5625 20.5625 20.5469 20.5469 20.5313 20.875 21.4844 22.125 22.6719 22.6875 22.6875 22.7031 22.8906 23.7188 29.4063 32.5 32.5625 32.9688 34.4063 36 37.75 39.6563 41.75 46.3125 46.7188 65504 65504 65504 65504 65504 65504 65504 65504 65504 65504 65504 65504 65504 65504 65504 65504 65504 65504 65504 65504 65504 65504 65504 65504 65504 65504 65504 65504 65504 65504 65504 65504 65504 65504 65504 65504 65504 65504 65504 65504 65504 65504 65504 65504 65504 65504 65504 65504 65504 65504 65504 65504 65504 65504 65504 65504 65504 65504 65504 65504 65504 65504 65504 65504 65504 65504 65504 65504 65504 65504 65504 65504 65504 65504 65504 65504 65504 65504 65504 65504 65504 65504 65504 65504 65504 65504 65504 65504 65504 65504 65504 65504 65504 65504 65504 65504 65504 65504 65504 65504 65504
65504 65504 65504 65504 65504 65504 65504 65504 65504 65504 65504 65504 65504 65504 65504 65504 65504 65504 65504 65504 65504 35 34.9063 34.8125 34.7188 34.625 34.5313 34.5625 34.5625 34.625 34.6563 65504 65504 34.3125 65504 65504 65504 65504 65504 65504 65504 65504 65504 65504 65504 65504 65504 65504 33.0313 32.4688 32.375 32.2813 32.2188 32.125 32.0313 31.9688 31.875 31.6406 31.5469 31.4531 31.375 31.2969 31.2031 31.125 31.0313 30.9531 30.8594 30.7813 30.7031 30.625 30.5313 30.4531 30.375 30.2969 30.2188 30.125 30.0469 29.9688 29.8906 29.8125 29.7344 29.6563 29.5781 29.5 29.4219 29.3438 29.2656 29.2031 29.125 29.0469 28.9688 28.8906 28.8281 28.75 28.6719 28.6094 28.5313 28.4531 28.3906 28.3125 28.2344 28.1719 28.0938 28.0313 27.9531 27.8906 27.8281 27.75 27.6875 27.625 27.5469 27.4844 27.4219 27.3594 27.2969 27.2344 27.1719 27.1094 27.0469 26.9844 26.9219 26.875 26.8125 26.75 26.6875 26.625 26.5625 26.5156 26.4531 26.3906 26.3438 26.2813 26.2188 26.1719 26.1094 26.0469 26 25.9375 25.8906 25.8281 25.7813 25.7188 25.6719 25.6094 25.5625 25.5 25.4531 25.3906 25.3438 25.2969 25.25 25.1875 25.1406 25.0938 25.0313 24.9844 24.9375 24.8906 24.8438 24.7969 24.7344 24.6875 24.6406 24.5938 24.5469 24.5 24.4531 24.4063 24.3594 24.2813 24.125 24.0781 24.0313 23.9844 23.9375 23.9063 23.8594 23.8125 23.7656 23.7188 23.6875 23.6406 23.5938 23.5625 23.5156 23.4688 23.4375 23.3906 23.3594 23.3125 23.2656 23.2344 23.1875 23.1563 23.1094 23.0781 23.0469 23 22.9688 22.9219 22.8906 22.8594 22.8125 22.7813 22.75 22.7031 22.6719 22.6406 22.6094 22.5625 22.5313 22.5 22.4688 22.4375 22.4063 22.375 22.3281 22.2969 22.2656 22.2344 22.2031 22.2031 22.1875 22.1875 22.1719 22.1563 22.1563 22.1406 22.1406 22.125 22.125 22.1094 22.1094 22.0938 22.0781 22.0625 22.0313 22 21.9688 21.9531 21.9219 21.8906 21.875 21.8438 21.8125 21.7969 21.7656 21.7344 21.7188 21.6875 21.6719 21.6406 21.625 21.5938 21.5781 21.5469 21.5313 21.5 21.4844 21.4688 21.4375 21.4219 21.4063 21.375 21.3594 21.3438 21.3125 21.2969 21.2813 21.2656 21.2344 21.2188 21.2031 21.1875 21.1719 21.1406 21.125 21.1094 21.0938 21.0781 21.0625 21.0469 21.0313 21.0156 21 20.9844 20.9688 20.9531 20.9375 20.9219 20.9063 20.8906 20.875 20.8594 20.8438 20.8281 20.8281 20.8125 20.7969 20.7813 20.7656 20.7656 20.75 20.7344 20.7188 20.7188 20.7031 20.6875 20.6875 20.6719 20.6563 20.6563 20.6406 20.625 20.625 20.6094 20.6094 20.5938 20.5938 20.5781 20.5625 20.5625 20.5469 20.5469 20.8906 21.5 22.1406 22.3594 22.375 22.3906 22.4063 22.9063 25.2188 29.4219 32.5313 32.5625 33 34.4688 36.0313 37.7813 39.6875 41.8125 46.3438 46.7813 65504 65504 65504 65504 65504 65504 65504 65504 65504 65504 65504 65504 65504 65504 65504 65504 65504 65504 65504 65504 65504 65504 65504 65504 65504 65504 65504 65504 65504 65504 65504 65504 65504 65504 65504 65504 65504 65504 65504 65504 65504 65504 65504 65504 65504 65504 65504 65504 65504 65504 65504 65504 65504 65504 65504 65504 65504 65504 65504 65504 65504 65504 65504 65504 65504 65504 65504 65504 65504 65504 65504 65504 65504 65504 65504 65504 65504 65504 65504 65504 65504 65504 65504 65504 65504 65504 65504 65504 65504 65504 65504 65504 65504 65504 65504 65504 65504 65504 65504 65504 65504
65504 65504 65504 65504 65504 65504 65504 65504 65504 65504 65504 65504 65504 65504 65504 65504 65504 65504 65504 65504 65504 35.0313 34.9375 34.8438 34.75 34.6563 34.5625 34.5938 34.5938 34.625 34.6875 65504 65504 34.3438 65504 65504 65504 65504 65504 65504 65504 65504 65504 65504 65504 65504 65504 65504 33.0313 32.4688 32.4063 32.3125 32.2188 32.1563 32.0625 31.9844 31.9063 31.8125 31.7344 31.6563 31.5625 31.4844 31.4063 31.3281 31.25 31.1719 31.0781 31 30.9219 30.6875 30.6094 30.5313 30.4375 30.3594 30.2813 30.2031 30.125 30.0469 29.9688 29.8906 29.7969 29.7188 29.6406 29.5781 29.5 29.4219 29.3438 29.2656 29.1875 29.1094 29.0313 28.9688 28.8906 28.8125 28.7344 28.6719 28.5938 28.5156 28.4531 28.375 28.3125 28.2344 28.1719 28.0938 28.0313 27.9531 27.8906 27.8125 27.75 27.6875 27.6094 27.5469 27.4844 27.4063 27.3438 27.2813 27.2188 27.1406 27.0781 27.0156 26.9531 26.8906 26.8281 26.7656 26.7031 26.6406 26.5938 26.5313 26.4688 26.4063 26.3594 26.2969 26.2344 26.1875 26.125 26.0625 26.0156 25.9531 25.9063 25.8438 25.7969 25.7344 25.6875 25.625 25.5781 25.5156 25.4688 25.4219 25.3594 25.3125 25.2656 25.2031 25.1563 25.1094 25.0625 25 24.9531 24.9063 24.8594 24.8125 24.75 24.7031 24.6563 24.6094 24.5625 24.5156 24.4688 24.4219 24.375 24.3281 24.2813 24.2344 24.1875 24.1563 24.1094 24.0625 24.0156 23.9688 23.9219 23.8906 23.8438 23.7969 23.7656 23.6719 23.5313 23.4844 23.4531 23.4063 23.375 23.3281 23.2813 23.25 23.2031 23.1719 23.125 23.0938 23.0625 23.0156 22.9844 22.9375 22.9063 22.875 22.8281 22.7969 22.7656 22.7188 22.6875 22.6563 22.625 22.5781 22.5469 22.5156 22.4844 22.4531 22.4219 22.3906 22.3438 22.3125 22.2813 22.25 22.2188 22.1875 22.1563 22.125 22.0938 22.0625 22.0469 22.0156 21.9844 21.9531 21.9219 21.8906 21.8594 21.8438 21.8125 21.7969 21.7813 21.7813 21.7813 21.7656 21.7656 21.75 21.75 21.75 21.75 21.7344 21.7344 21.7344 21.7188 21.7031 21.6875 21.6563 21.6406 21.6094 21.5938 21.5625 21.5469 21.5156 21.5 21.4844 21.4531 21.4375 21.4219 21.3906 21.375 21.3594 21.3281 21.3125 21.2969 21.2656 21.25 21.2344 21.2188 21.2031 21.1719 21.1563 21.1406 21.125 21.1094 21.0938 21.0781 21.0625 21.0469 21.0313 21.0156 21 20.9844 20.9688 20.9531 20.9375 20.9219 20.9063 20.8906 20.875 20.8594 20.8438 20.8438 20.8281 20.8125 20.7969 20.7813 20.7813 20.7656 20.75 20.7344 20.7344 20.7188 20.7031 20.6875 20.6875 20.6719 20.6719 20.6563 20.6406 20.6406 20.625 20.6094 20.6094 20.5938 20.5938 20.5781 20.5781 20.5625 20.5625 20.9063 21.5156 22.0469 22.0625 22.0781 22.0938 22.1563 22.9375 29.4531 29.4375 32.5625 32.5938 33.0313 34.5 36.0938 37.8438 39.75 41.875 46.375 46.875 65504 65504 65504 65504 65504 65504 65504 65504 65504 65504 65504 65504 65504 65504 65504 65504 65504 65504 65504 65504 65504 65504 65504 65504 65504 65504 65504 65504 65504 65504 65504 65504 65504 65504 65504 65504 65504 65504 65504 65504 65504 65504 65504 65504 65504 65504 65504 65504 65504 65504 65504 65504 65504 65504 65504 65504 65504 65504 65504 65504 65504 65504 65504 65504 65504 65504 65504 65504 65504 65504 65504 65504 65504 65504 65504 65504 65504 65504 65504 65504 65504 65504 65504 65504 65504 65504 65504 65504 65504 65504 65504 65504 65504 65504 65504 65504 65504 65504 65504 65504 65504
65504 65504 65504 65504 65504 65504 65504 65504 65504 65504 65504 65504 65504 65504 65504 65504 65504 65504 65504 65504 65504 35.0313 34.9375 34.8438 34.75 34.6563 34.5625 34.5938 34.5938 34.625 34.6875 65504 65504 34.3438 65504 65504 65504 65504 65504 65504 65504 65504 65504 65504 65504 65504 65504 65504 33.0625 32.5 32.4063 32.3438 32.25 32.1563 32.0625 32 31.9219 31.8281 31.75 31.6719 31.5938 31.5 31.4219 31.3438 31.2656 31.1875 31.1094 31.0313 30.9531 30.8594 30.7813 30.7031 30.625 30.5625 30.4844 30.4063 30.3281 30.375 30.375 30.4375 65504 29.7969 29.7188 29.6406 29.5625 29.4844 29.4063 29.3281 29.25 29.1875 29.1094 29.0313 28.9531 28.875 28.8125 28.7344 28.6563 28.5938 28.5156 28.4375 28.375 28.2969 28.2344 28.1563 28.0938 28.0156 27.9531 27.875 27.8125 27.75 27.6719 27.6094 27.5469 27.4688 27.4063 27.3438 27.2813 27.2031 27.1406 27.0781 27.0156 26.9531 26.8906 26.8281 26.7656 26.6875 26.625 26.5625 26.5156 26.4531 26.3906 26.3281 26.2656 26.2031 26.1406 26.0781 26.0313 25.9688 25.9219 25.8594 25.8125 25.75 25.7031 25.6406 25.5938 25.5313 25.4844 25.4375 25.375 25.3281 25.2813 25.2188 25.1719 25.125 25.0781 25.0156 24.9688 24.9219 24.875 24.8281 24.7813 24.7188 24.6719 24.625 24.5781 24.5313 24.4844 24.4375 24.3906 24.3438 24.2969 24.25 24.2188 24.1719 24.125 24.0781 24.0313 23.9844 23.9531 23.9063 23.8594 23.8125 23.7813 23.7344 23.6875 23.6563 23.6094 23.5625 23.5313 23.4844 23.4531 23.4063 23.3594 23.3281 23.2813 23.25 23.2188 23.1094 23 22.9531 22.9219 22.8906 22.8438 22.8125 22.7813 22.7344 22.7031 22.6719 22.6406 22.5938 22.5625 22.5313 22.5 22.4688 22.4375 22.4063 22.3594 22.3281 22.2969 22.2656 22.2344 22.2031 22.1719 22.1406 22.1094 22.0781 22.0625 22.0313 22 21.9688 21.9375 21.9063 21.875 21.8594 21.8281 21.7969 21.7656 21.75 21.7188 21.6875 21.6563 21.6406 21.6094 21.5781 21.5625 21.5313 21.5156 21.4844 21.4688 21.4375 21.4375 21.4219 21.4219 21.4219 21.4219 21.4219 21.4219 21.4063 21.4063 21.4063 21.4063 21.4063 21.4063 21.4063 21.3906 21.3594 21.3438 21.3281 21.3125 21.2813 21.2656 21.25 21.2344 21.2188 21.1875 21.1719 21.1563 21.1406 21.125 21.1094 21.0938 21.0781 21.0625 21.0469 21.0313 21.0156 21 20.9844 20.9688 20.9531 20.9375 20.9219 20.9063 20.8906 20.875 20.8594 20.8438 20.8438 20.8281 20.8125 20.7969 20.7813 20.7813 20.7656 20.75 20.7344 20.7344 20.7188 20.7031 20.7031 20.6875 20.6719 20.6719 20.6563 20.6563 20.6406 20.625 20.625 20.6094 20.6094 20.5938 20.5938 20.5781 20.5781 20.9375 21.5469 21.7656 21.7656 21.7813 21.7969 22.1875 24.3906 29.4688 29.4688 32.5625 32.625 33.0938 34.5313 36.125 37.875 39.8125 41.9375 46.4063 46.9375 65504 65504 65504 65504 65504 65504 65504 65504 65504 65504 65504 65504 65504 65504 65504 65504 65504 65504 65504 65504 65504 65504 65504 65504 65504 65504 65504 65504 65504 65504 65504 65504 65504 65504 65504 65504 65504 65504 65504 65504 65504 65504 65504 65504 65504 65504 65504 65504 65504 65504 65504 65504 65504 65504 65504 65504 65504 65504 65504 65504 65504 65504 65504 65504 65504 65504 65504 65504 65504 65504 65504 65504 65504 65504 65504 65504 65504 65504 65504 65504 65504 65504 65504 65504 65504 65504 65504 65504 65504 65504 65504 65504 65504 65504 65504 65504 65504 65504 65504 65504 65504
65504 65504 65504 65504 65504 65504 65504 65504 65504 65504 65504 65504 65504 65504 65504 65504 65504 65504 65504 65504 65504 35.0625 34.9688 34.875 34.7813 34.6875 34.5938 34.5938 34.625 34.6563 34.7188 65504 65504 34.375 34.2813 34.1875 34.0938 34 33.9063 33.8125 33.7188 33.6563 33.625 65504 65504 65504 65504 65504 33.0625 32.5313 32.4375 32.3438 32.2813 32.1875 32.0938 32 31.9375 31.8594 31.7656 31.6875 31.6094 31.5313 31.4375 31.3594 31.2813 31.2031 31.125 31.0469 30.9688 30.8906 30.8125 30.7344 30.6563 30.5781 30.5 30.4219 30.3438 30.3906 30.3906 30.4531 65504 65504 65504 30.1875 65504 65504 65504 65504 65504 65504 65504 65504 65504 28.9531 28.875 28.7969 28.7344 28.6563 28.5781 28.5156 28.4375 28.375 28.2969 28.2188 28.1563 28.0781 28.0156 27.9531 27.875 27.8125 27.7344 27.6719 27.6094 27.5313 27.4688 27.4063 27.3438 27.2656 27.2031 27.1406 27.0781 27.0156 26.9531 26.8906 26.8125 26.75 26.6875 26.625 26.5625 26.5 26.4531 26.3906 26.3281 26.2656 26.2031 26.1406 26.0781 26.0313 25.9688 25.9063 25.8438 25.7969 25.7344 25.6719 25.625 25.5625 25.5 25.4531 25.3906 25.3438 25.2969 25.2344 25.1875 25.1406 25.0938 25.0313 24.9844 24.9375 24.8906 24.8438 24.7969 24.75 24.6875 24.6406 24.5938 24.5469 24.5 24.4531 24.4063 24.3594 24.3125 24.2813 24.2344 24.1875 24.1406 24.0938 24.0469 24 23.9688 23.9219 23.875 23.8281 23.7969 23.75 23.7031 23.6719 23.625 23.5781 23.5469 23.5 23.4688 23.4219 23.3906 23.3438 23.3125 23.2656 23.2344 23.1875 23.1563 23.1094 23.0781 23.0469 23 22.9688 22.9375 22.8906 22.8594 22.8281 22.7969 22.75 22.7188 22.6094 22.5156 22.4844 22.4531 22.4219 22.375 22.3438 22.3125 22.2813 22.25 22.2188 22.1875 22.1563 22.125 22.0938 22.0781 22.0469 22.0156 21.9844 21.9531 21.9219 21.8906 21.875 21.8438 21.8125 21.7813 21.7656 21.7344 21.7031 21.6719 21.6563 21.625 21.5938 21.5781 21.5469 21.5313 21.5 21.4844 21.4531 21.4219 21.4063 21.375 21.3594 21.3438 21.3125 21.2969 21.2656 21.25 21.2188 21.2031 21.1875 21.1563 21.1406 21.125 21.125 21.125 21.125 21.125 21.125 21.125 21.125 21.125 21.125 21.125 21.1406 21.1406 21.1406 21.1406 21.125 21.1094 21.0938 21.0781 21.0625 21.0469 21.0313 21.0156 21 20.9844 20.9688 20.9531 20.9375 20.9219 20.9063 20.8906 20.875 20.8594 20.8594 20.8438 20.8281 20.8125 20.7969 20.7969 20.7813 20.7656 20.75 20.75 20.7344 20.7188 20.7188 20.7031 20.6875 20.6875 20.6719 20.6563 20.6563 20.6406 20.6406 20.625 20.625 20.6094 20.6094 20.5938 20.5938 20.9531 21.4688 21.4844 21.4844 21.5 21.5156 22.2031 29.4531 29.4844 29.4844 32.5938 32.625 33.125 34.5938 36.1875 37.9375 39.8438 42 46.4375 47 65504 65504 65504 65504 65504 65504 65504 65504 65504 65504 65504 65504 65504 65504 65504 65504 65504 65504 65504 65504 65504 65504 65504 65504 65504 65504 65504 65504 65504 65504 65504 65504 65504 65504 65504 65504 65504 65504 65504 65504 65504 65504 65504 65504 65504 65504 65504 65504 65504 65504 65504 65504 65504 65504 65504 65504 65504 65504 65504 65504 65504 65504 65504 65504 65504 65504 65504 65504 65504 65504 65504 65504 65504 65504 65504 65504 65504 65504 65504 65504 65504 65504 65504 65504 65504 65504 65504 65504 65504 65504 65504 65504 65504 65504 65504 65504 65504 65504 65504 65504 65504
65504 65504 65504 65504 65504 65504 65504 65504 65504 65504 65504 65504 65504 65504 65504 65504 65504 65504 65504 65504 65504 35.0938 35 34.9063 34.8125 34.6875 34.5938 34.625 34.6563 34.6563 34.7188 65504 65504 34.375 65504 65504 65504 65504 65504 65504 65504 65504 65504 65504 65504 33.3125 33.2188 33.125 33.0313 32.5313 32.4688 32.375 32.2813 32.1875 32.125 32.0313 31.9531 31.875 31.7969 31.7031 31.625 31.5469 31.4688 31.3906 31.2969 31.2188 31.1406 31.0625 30.9844 30.9063 30.8281 30.75 30.6719 30.5938 30.5156 30.4375 30.3594 30.4063 30.4063 30.4688 65504 65504 65504 30.2188 65504 65504 65504 65504 65504 65504 65504 65504 65504 65504 65504 65504 65504 65504 65504 65504 29.0313 65504 28.5 28.4219 28.3594 28.2969 28.0781 28.0156 27.9375 27.875 27.8125 27.7344 27.6719 27.6094 27.5313 27.4688 27.4063 27.3281 27.2656 27.2031 27.1406 27.0781 27.0156 26.9531 26.875 26.8125 26.75 26.6875 26.625 26.5625 26.5 26.4531 26.3906 26.3281 26.2656 26.2031 26.1406 26.0781 26.0313 25.9688 25.9063 25.8438 25.7969 25.7344 25.6719 25.625 25.5625 25.5156 25.4531 25.3906 25.3438 25.2813 25.2344 25.1719 25.125 25.0781 25.0156 24.9688 24.9063 24.8594 24.8125 24.7656 24.7188 24.6563 24.6094 24.5625 24.5156 24.4688 24.4219 24.375 24.3438 24.2969 24.25 24.2031 24.1563 24.1094 24.0625 24.0156 23.9844 23.9375 23.8906 23.8438 23.8125 23.7656 23.7188 23.6875 23.6406 23.5938 23.5625 23.5156 23.4844 23.4375 23.4063 23.3594 23.3281 23.2813 23.25 23.2031 23.1719 23.125 23.0938 23.0625 23.0156 22.9844 22.9531 22.9063 22.875 22.8438 22.8125 22.7656 22.7344 22.7031 22.6719 22.6406 22.5938 22.5625 22.5313 22.5 22.4688 22.4375 22.4063 22.375 22.3438 22.3125 22.2813 22.1719 22.0938 22.0625 22.0313 22 21.9688 21.9375 21.9063 21.8906 21.8594 21.8281 21.7969 21.7813 21.75 21.7188 21.6875 21.6719 21.6406 21.6094 21.5938 21.5625 21.5469 21.5156 21.5 21.4688 21.4375 21.4219 21.3906 21.375 21.3594 21.3281 21.3125 21.2813 21.2656 21.2344 21.2188 21.2031 21.1719 21.1563 21.1406 21.1094 21.0938 21.0781 21.0625 21.0313 21.0156 21 20.9844 20.9688 20.9531 20.9219 20.9063 20.8906 20.875 20.875 20.875 20.875 20.875 20.8906 20.8906 20.8906 20.8906 20.9063 20.9063 20.9063 20.9063 20.9219 20.9219 20.9219 20.9063 20.8906 20.875 20.875 20.8594 20.8438 20.8281 20.8125 20.8125 20.7969 20.7813 20.7656 20.7656 20.75 20.7344 20.7344 20.7188 20.7031 20.7031 20.6875 20.6719 20.6719 20.6563 20.6563 20.6406 20.6406 20.625 20.625 20.6094 20.6094 20.9688 21.1875 21.2031 21.2188 21.2344 21.5 22.2344 29.4688 29.5156 29.5 32.625 32.6563 33.1563 34.625 36.2188 37.9688 39.9063 42.0313 46.4688 47.0625 65504 65504 65504 65504 65504 65504 65504 65504 65504 65504 65504 65504 65504 65504 65504 65504 65504 65504 65504 65504 65504 65504 65504 65504 65504 65504 65504 65504 65504 65504 65504 65504 65504 65504 65504 65504 65504 65504 65504 65504 65504 65504 65504 65504 65504 65504 65504 65504 65504 65504 65504 65504 65504 65504 65504 65504 65504 65504 65504 65504 65504 65504 65504 65504 65504 65504 65504 65504 65504 65504 65504 65504 65504 65504 65504 65504 65504 65504 65504 65504 65504 65504 65504 65504 65504 65504 65504 65504 65504 65504 65504 65504 65504 65504 65504 65504 65504 65504 65504 65504 65504
65504 65504 65504 65504 65504 65504 65504 65504 65504 65504 65504 65504 65504 65504 65504 65504 65504 65504 65504 65504 65504 35.0938 35 34.9063 34.8125 34.7188 34.625 34.625 34.6563 34.6875 34.75 65504 65504 34.4063 65504 65504 65504 65504 65504 65504 65504 65504 65504 65504 65504 65504 65504 65504 33.0938 32.5625 32.4688 32.375 32.3125 32.2188 32.125 32.0625 31.9844 31.8906 31.8125 31.7344 31.6406 31.5625 31.4844 31.4063 31.3281 31.25 31.1563 31.0781 31 30.9219 30.8438 30.7656 30.6875 30.6094 30.5313 30.4531 30.3906 30.4219 30.4375 30.4844 65504 65504 65504 30.2344 65504 65504 65504 65504 65504 65504 65504 65504 65504 65504 65504 65504 65504 65504 65504 65504 29.0313 65504 28.5156 28.4531 28.375 28.3125 28.25 28.1719 28.2344 28.2344 28.3125 65504 65504 65504 28.0781 65504 65504 65504 27.3281 27.2656 27.2031 27.1406 27.0781 27.0156 26.9375 26.875 26.8125 26.75 26.6875 26.625 26.5625 26.5 26.4531 26.3906 26.3281 26.2656 26.2031 26.1406 26.0781 26.0313 25.9688 25.9063 25.8594 25.7969 25.7344 25.6875 25.625 25.5625 25.5156 25.4531 25.4063 25.3438 25.2969 25.2344 25.1875 25.125 25.0781 25.0156 24.9688 24.9219 24.8594 24.8125 24.7656 24.7188 24.6563 24.6094 24.5625 24.5156 24.4688 24.4063 24.3594 24.3125 24.2656 24.2188 24.1719 24.125 24.0781 24.0469 24 23.9531 23.9063 23.875 23.8281 23.7813 23.7344 23.7031 23.6563 23.625 23.5781 23.5313 23.5 23.4531 23.4219 23.375 23.3438 23.2969 23.2656 23.2188 23.1875 23.1406 23.1094 23.0781 23.0313 23 22.9688 22.9219 22.8906 22.8594 22.8281 22.7813 22.75 22.7188 22.6875 22.6563 22.625 22.5781 22.5469 22.5156 22.4844 22.4531 22.4219 22.3906 22.3594 22.3281 22.2969 22.2656 22.2344 22.2031 22.1719 22.1563 22.125 22.0938 22.0625 22.0313 22 21.9844 21.9531 21.9219 21.8906 21.7656 21.7031 21.6875 21.6563 21.625 21.6094 21.5781 21.5625 21.5313 21.5156 21.4844 21.4531 21.4375 21.4063 21.3906 21.3594 21.3438 21.3281 21.2969 21.2813 21.25 21.2344 21.2188 21.1875 21.1719 21.1563 21.125 21.1094 21.0938 21.0781 21.0469 21.0313 21.0156 21 20.9844 20.9531 20.9375 20.9219 20.9063 20.8906 20.875 20.8594 20.8438 20.8281 20.8125 20.7969 20.7813 20.7656 20.75 20.7344 20.7188 20.7031 20.6875 20.6719 20.6563 20.6719 20.6719 20.6719 20.6875 20.6875 20.7031 20.7031 20.7031 20.7188 20.7188 20.7344 20.7344 20.75 20.75 20.75 20.7344 20.7344 20.7188 20.7188 20.7031 20.6875 20.6875 20.6719 20.6719 20.6563 20.6406 20.6406 20.625 20.625 20.6094 20.9219 20.9219 20.9375 20.9531 20.9531 21.5156 23.6406 29.4844 29.5313 29.5313 32.625 32.6875 33.1875 34.6563 36.2813 38.0313 39.9688 42.0938 46.5 65504 65504 65504 65504 65504 65504 65504 65504 65504 65504 65504 65504 65504 65504 65504 65504 65504 65504 65504 65504 65504 65504 65504 65504 65504 65504 65504 65504 65504 65504 65504 65504 65504 65504 65504 65504 65504 65504 65504 65504 65504 65504 65504 65504 65504 65504 65504 65504 65504 65504 65504 65504 65504 65504 65504 65504 65504 65504 65504 65504 65504 65504 65504 65504 65504 65504 65504 65504 65504 65504 65504 65504 65504 65504 65504 65504 65504 65504 65504 65504 65504 65504 65504 65504 65504 65504 65504 65504 65504 65504 65504 65504 65504 65504 65504 65504 65504 65504 65504 65504 65504 65504
65504 65504 65504 65504 65504 65504 65504 65504 65504 65504 65504 65504 65504 65504 65504 65504 65504 65504 65504 65504 65504 65504 35.0313 34.9375 34.8438 34.75 34.6563 34.6563 34.6875 34.6875 34.75 65504 65504 34.4375 65504 35.5 65504 65504 65504 65504 65504 65504 65504 65504 65504 65504 65504 65504 33.0938 32.5938 32.5 32.4063 32.3125 32.25 32.1563 32.0625 32 31.9219 31.8281 31.75 31.6719 31.5781 31.5 31.4219 31.3438 31.2656 31.1875 31.1094 31.0313 30.9375 30.8594 30.7813 30.7031 30.625 30.5625 30.4844 30.4063 30.4219 30.4531 30.5 65504 65504 65504 30.25 65504 65504 65504 65504 65504 65504 65504 65504 65504 65504 65504 65504 65504 65504 65504 65504 29.0469 65504 28.5313 28.4688 28.3906 28.3281 28.2656 28.2031 28.25 28.25 28.3281 65504 65504 65504 28.0938 65504 65504 65504 65504 43.3125 43.2188 43.125 43 42.9063 42.8125 65504 65504 65504 65504 65504 26.625 26.5625 26.5 26.4531 26.3906 26.3281 26.2656 26.2031 26.1406 26.0938 26.0313 25.9688 25.9063 25.8594 25.7969 25.7344 25.6875 25.625 25.5781 25.5156 25.4531 25.4063 25.3438 25.2969 25.2344 25.1875 25.1406 25.0781 25.0313 24.9688 24.9219 24.875 24.8125 24.7656 24.7188 24.6719 24.6094 24.5625 24.5156 24.4688 24.4219 24.375 24.3281 24.2656 24.2188 24.1719 24.125 24.0781 24.0313 23.9844 23.9531 23.9063 23.8594 23.8125 23.7656 23.7188 23.6719 23.6406 23.5938 23.5469 23.5156 23.4688 23.4375 23.3906 23.3594 23.3125 23.2813 23.2344 23.2031 23.1719 23.125 23.0938 23.0469 23.0156 22.9844 22.9375 22.9063 22.875 22.8438 22.7969 22.7656 22.7344 22.7031 22.6719 22.6406 22.5938 22.5625 22.5313 22.5 22.4688 22.4375 22.4063 22.375 22.3438 22.3125 22.2813 22.25 22.2188 22.1875 22.1719 22.1406 22.1094 22.0781 22.0469 22.0156 22 21.9688 21.9375 21.9063 21.8906 21.8594 21.8281 21.8125 21.7813 21.75 21.7344 21.7031 21.6875 21.6563 21.625 21.6094 21.5781 21.5469 21.4219 21.3906 21.3594 21.3438 21.3125 21.2969 21.2656 21.25 21.2344 21.2031 21.1875 21.1719 21.1406 21.125 21.1094 21.0938 21.0625 21.0469 21.0313 21.0156 21 20.9688 20.9531 20.9375 20.9219 20.9063 20.8906 20.875 20.8594 20.8438 20.8281 20.8125 20.7969 20.7813 20.7656 20.75 20.7344 20.7188 20.7031 20.6875 20.6719 20.6563 20.6563 20.6406 20.625 20.6094 20.5938 20.5781 20.5781 20.5625 20.5469 20.5313 20.5313 20.5156 20.5 20.5 20.5156 20.5156 20.5313 20.5313 20.5469 20.5625 20.5625 20.5781 20.5781 20.5938 20.6094 20.6094 20.625 20.6406 20.625 20.6563 20.6719 20.6719 20.6875 20.8594 21.5469 26.4844 29.5156 29.5469 29.5469 32.6563 32.6875 33.25 34.7188 36.3125 38.0625 40.0313 42.1563 46.5313 65504 65504 65504 65504 65504 65504 65504 65504 65504 65504 65504 65504 65504 65504 65504 65504 65504 65504 65504 65504 65504 65504 65504 65504 65504 65504 65504 65504 65504 65504 65504 65504 65504 65504 65504 65504 65504 65504 65504 65504 65504 65504 65504 65504 65504 65504 65504 65504 65504 65504 65504 65504 65504 65504 65504 65504 65504 65504 65504 65504 65504 65504 65504 65504 65504 65504 65504 65504 65504 65504 65504 65504 65504 65504 65504 65504 65504 65504 65504 65504 65504 65504 65504 65504 65504 65504 65504 65504 65504 65504 65504 65504 65504 65504 65504 65504 65504 65504 65504 65504 65504 65504
65504 65504 65504 65504 65504 65504 65504 65504 65504 65504 65504 65504 65504 65504 65504 65504 65504 65504 65504 65504 65504 65504 35.0625 34.9688 34.875 34.75 34.6563 34.6563 34.7188 34.7188 34.75 65504 65504 34.4375 65504 35.5313 65504 65504 65504 65504 65504 65504 65504 65504 65504 65504 65504 65504 33.125 32.5938 32.5313 32.4375 32.3438 32.25 32.1875 32.0938 32 31.9375 31.8594 31.7656 31.6875 31.6094 31.5313 31.4375 31.3594 31.2813 31.2031 31.125 31.0469 30.9688 30.8906 30.8125 30.7344 30.6563 30.5781 30.5 30.4219 30.4375 30.4688 30.5156 30.5 30.4219 30.3438 30.2813 30.2031 30.125 30.0469 30 29.9688 65504 65504 65504 65504 65504 65504 65504 65504 65504 65504 65504 29.0625 65504 28.5469 28.4844 28.4219 28.3438 28.2813 28.2188 28.2656 28.2656 28.3438 65504 65504 65504 28.1094 65504 65504 65504 65504 43.3438 43.25 43.1563 43.0313 42.9375 42.8438 65504 65504 65504 65504 65504 65504 65504 27 65504 65504 26.5 26.4375 26.375 26.3281 26.2656 26.2188 26.1563 25.9688 25.9063 25.8594 25.7969 25.75 25.6875 25.625 25.5781 25.5156 25.4688 25.4063 25.3594 25.2969 25.25 25.1875 25.1406 25.0781 25.0313 24.9844 24.9219 24.875 24.8281 24.7813 24.7188 24.6719 24.625 24.5781 24.5313 24.4688 24.4219 24.375 24.3281 24.2813 24.2344 24.1875 24.1406 24.0938 24.0469 24 23.9531 23.9063 23.8594 23.8125 23.7813 23.7344 23.6875 23.6406 23.5938 23.5625 23.5156 23.4688 23.4219 23.3906 23.3438 23.2969 23.2656 23.2188 23.1875 23.1406 23.1094 23.0781 23.0313 23 22.9688 22.9219 22.8906 22.8594 22.8281 22.7813 22.75 22.7188 22.6875 22.6563 22.625 22.5781 22.5469 22.5156 22.4844 22.4531 22.4219 22.3906 22.3594 22.3281 22.2969 22.2656 22.2344 22.2031 22.1875 22.1563 22.125 22.0938 22.0625 22.0313 22.0156 21.9844 21.9531 21.9219 21.9063 21.875 21.8438 21.8281 21.7969 21.7656 21.75 21.7188 21.7031 21.6719 21.6406 21.625 21.5938 21.5781 21.5469 21.5313 21.5 21.4844 21.4688 21.4375 21.4219 21.3906 21.375 21.3594 21.3281 21.3125 21.2969 21.25 21.1406 21.1094 21.0781 21.0625 21.0469 21.0313 21.0156 20.9844 20.9688 20.9531 20.9375 20.9219 20.9063 20.8906 20.875 20.8594 20.8438 20.8281 20.8125 20.7969 20.7813 20.7656 20.75 20.7344 20.7188 20.7031 20.6875 20.6719 20.6563 20.6563 20.6406 20.625 20.6094 20.5938 20.5938 20.5781 20.5625 20.5469 20.5469 20.5313 20.5156 20.5156 20.5 20.4844 20.4844 20.4688 20.4531 20.4531 20.4375 20.4375 20.4219 20.4219 20.4063 20.3906 20.3906 20.375 20.3906 20.4063 20.4063 20.4219 20.4375 20.875 22.9063 26.5 29.5313 29.5781 29.5625 32.6875 32.7188 33.2813 34.75 36.375 38.9063 40.0625 42.2188 46.5625 65504 65504 65504 65504 65504 65504 65504 65504 65504 65504 65504 65504 65504 65504 65504 65504 65504 65504 65504 65504 65504 65504 65504 65504 65504 65504 65504 65504 65504 65504 65504 65504 65504 65504 65504 65504 65504 65504 65504 65504 65504 65504 65504 65504 65504 65504 65504 65504 65504 65504 65504 65504 65504 65504 65504 65504 65504 65504 65504 65504 65504 65504 65504 65504 65504 65504 65504 65504 65504 65504 65504 65504 65504 65504 65504 65504 65504 65504 65504 65504 65504 65504 65504 65504 65504 65504 65504 65504 65504 65504 65504 65504 65504 65504 65504 65504 65504 65504 65504 65504 65504 65504
65504 65504 65504 65504 65504 65504 65504 65504 65504 65504 65504 65504 65504 65504 65504 65504 65504 65504 65504 65504 65504 65504 35.0625 34.9688 34.875 34.7813 34.6875 34.6875 34.7188 34.7188 34.7813 65504 65504 34.4688 65504 35.5625 65504 65504 65504 65504 65504 65504 65504 65504 65504 65504 65504 65504 33.125 32.625 32.5313 32.4375 32.375 32.2813 32.1875 32.125 32.0313 31.9531 31.875 31.7969 31.7031 31.625 31.5469 31.4688 31.3906 31.2969 31.2188 31.1406 31.0625 30.9844 30.9063 30.8281 30.75 30.6719 30.5938 30.5156 30.4375 30.4531 30.4844 30.5313 65504 65504 65504 30.2969 65504 65504 65504 65504 65504 65504 65504 29.7031 29.6406 29.5625 29.4844 29.4219 29.3438 29.2813 29.2188 29.1875 29.0781 65504 28.5781 28.5 28.4375 28.375 28.2969 28.2344 28.2813 28.2969 28.3594 65504 65504 65504 28.1406 65504 65504 65504 65504 43.375 43.2813 43.1563 43.0625 42.9688 42.875 65504 65504 65504 65504 65504 65504 65504 27.0313 65504 65504 26.5156 26.4531 26.4063 26.3438 26.2813 26.2344 26.1719 26.125 26.0625 26.0156 25.9531 25.9063 25.8594 25.7969 25.75 25.6875 25.6406 25.5938 25.5313 25.4844 25.2969 25.25 25.2031 25.1406 25.0938 25.0313 24.9844 24.9375 24.875 24.8281 24.7813 24.7344 24.6875 24.625 24.5781 24.5313 24.4844 24.4375 24.3906 24.3438 24.2969 24.2344 24.1875 24.1406 24.0938 24.0625 24.0156 23.9688 23.9219 23.875 23.8281 23.7813 23.7344 23.7031 23.6563 23.6094 23.5625 23.5313 23.4844 23.4375 23.4063 23.3594 23.3125 23.2813 23.2344 23.1875 23.1563 23.1094 23.0781 23.0313 23 22.9531 22.9219 22.8906 22.8438 22.8125 22.7656 22.7344 22.7031 22.6719 22.6406 22.6094 22.5625 22.5313 22.5 22.4688 22.4375 22.4063 22.375 22.3438 22.3125 22.2813 22.25 22.2344 22.2031 22.1719 22.1406 22.1094 22.0781 22.0625 22.0313 22 21.9688 21.9375 21.9219 21.8906 21.8594 21.8438 21.8125 21.7813 21.7656 21.7344 21.7188 21.6875 21.6563 21.6406 21.6094 21.5938 21.5625 21.5469 21.5156 21.5 21.4844 21.4531 21.4375 21.4063 21.3906 21.375 21.3438 21.3281 21.3125 21.2813 21.2656 21.25 21.2344 21.2031 21.1875 21.1719 21.1563 21.1406 21.125 21.0938 21.0781 21.0625 21.0469 20.9844 20.8906 20.875 20.8594 20.8438 20.8281 20.8125 20.7969 20.7813 20.7656 20.75 20.7344 20.7188 20.7031 20.6875 20.6719 20.6719 20.6563 20.6406 20.625 20.6094 20.6094 20.5938 20.5781 20.5625 20.5625 20.5469 20.5313 20.5313 20.5156 20.5 20.5 20.4844 20.4688 20.4688 20.4531 20.4531 20.4375 20.4219 20.4219 20.4063 20.4063 20.3906 20.3906 20.375 20.375 20.375 20.3594 20.9063 25.6563 26.5313 29.5469 29.5938 29.5938 32.7188 32.75 33.3125 34.8125 36.4063 38.9375 40.125 42.2813 46.5938 65504 65504 65504 65504 65504 65504 65504 65504 65504 65504 65504 65504 65504 65504 65504 65504 65504 65504 65504 65504 65504 65504 65504 65504 65504 65504 65504 65504 65504 65504 65504 65504 65504 65504 65504 65504 65504 65504 65504 65504 65504 65504 65504 65504 65504 65504 65504 65504 65504 65504 65504 65504 65504 65504 65504 65504 65504 65504 65504 65504 65504 65504 65504 65504 65504 65504 65504 65504 65504 65504 65504 65504 65504 65504 65504 65504 65504 65504 65504 65504 65504 65504 65504 65504 65504 65504 65504 65504 65504 65504 65504 65504 65504 65504 65504 65504 65504 65504 65504 65504 65504 65504
65504 65504 65504 65504 65504 65504 65504 65504 65504 65504 65504 65504 65504 65504 65504 65504 65504 65504 65504 65504 65504 65504 35.0938 35 34.9063 34.8125 34.7188 34.6875 34.75 34.75 34.7813 65504 65504 34.5 65504 35.5625 65504 65504 65504 65504 65504 65504 65504 65504 65504 65504 65504 65504 33.1563 32.6563 32.5625 32.4688 32.375 32.3125 32.2188 32.125 32.0625 31.9688 31.8906 31.8125 31.7344 31.6406 31.5625 31.4844 31.4063 31.3281 31.25 31.1563 31.0781 31 30.9219 30.8438 30.7656 30.6875 30.6094 30.5313 30.4688 30.4688 30.5156 30.5469 30.6094 65504 65504 30.3125 65504 65504 65504 65504 65504 65504 65504 65504 65504 65504 65504 65504 65504 65504 65504 65504 29.0938 65504 28.5938 28.5156 28.4531 28.3906 28.3281 28.25 28.2813 28.3125 28.375 28.4063 65504 65504 28.1563 65504 65504 65504 65504 43.4063 43.3125 43.1875 43.0938 43 42.9063 65504 65504 65504 65504 65504 65504 65504 27.0469 65504 65504 26.5313 26.4688 26.4219 26.3594 26.3125 26.25 26.2031 26.1406 26.0938 26.0313 25.9844 25.9219 25.875 25.8125 25.7656 25.7188 25.6563 25.6094 25.5625 25.5 25.4531 25.4063 25.3594 25.2969 25.25 25.2031 25.1563 25.1875 25.2188 25.3125 54.2188 54.125 24.7344 24.6875 24.6406 24.5938 24.5313 24.4844 24.4375 24.3906 24.3438 24.2969 24.25 24.2031 24.1563 24.1094 24.0625 24.0156 23.9688 23.9219 23.8906 23.8438 23.7969 23.75 23.7031 23.6563 23.625 23.5781 23.5313 23.5 23.4531 23.4063 23.375 23.3281 23.2813 23.25 23.2031 23.1719 23.125 23.0938 23.0469 23.0156 22.9688 22.9375 22.9063 22.8594 22.8281 22.7813 22.75 22.7188 22.6719 22.6406 22.6094 22.5781 22.5313 22.5 22.4688 22.4375 22.4063 22.375 22.3281 22.2969 22.2813 22.25 22.2188 22.1875 22.1563 22.125 22.0938 22.0781 22.0469 22.0156 21.9844 21.9688 21.9375 21.9063 21.875 21.8594 21.8281 21.7969 21.7813 21.75 21.7344 21.7031 21.6875 21.6563 21.625 21.6094 21.5781 21.5625 21.5469 21.5156 21.5 21.4688 21.4531 21.4219 21.4063 21.3906 21.3594 21.3438 21.3281 21.2969 21.2813 21.2656 21.25 21.2188 21.2031 21.1875 21.1719 21.1563 21.1406 21.1094 21.0938 21.0781 21.0625 21.0469 21.0313 21.0156 21 20.9844 20.9688 20.9531 20.9375 20.9219 20.9063 20.8906 20.875 20.8594 20.8438 20.7813 20.6875 20.6875 20.6719 20.6563 20.6406 20.625 20.625 20.6094 20.5938 20.5781 20.5781 20.5625 20.5469 20.5469 20.5313 20.5156 20.5156 20.5 20.4844 20.4844 20.4688 20.4688 20.4531 20.4375 20.4375 20.4219 20.4219 20.4063 20.4063 20.3906 20.3906 20.375 20.375 20.9219 25.6875 26.5625 29.5781 29.625 29.6094 32.7188 32.7813 33.375 34.8438 36.4688 38.9688 40.1875 42.3438 46.625 65504 65504 65504 65504 65504 65504 65504 65504 65504 65504 65504 65504 65504 65504 65504 65504 65504 65504 65504 65504 65504 65504 65504 65504 65504 65504 65504 65504 65504 65504 65504 65504 65504 65504 65504 65504 65504 65504 65504 65504 65504 65504 65504 65504 65504 65504 65504 65504 65504 65504 65504 65504 65504 65504 65504 65504 65504 65504 65504 65504 65504 65504 65504 65504 65504 65504 65504 65504 65504 65504 65504 65504 65504 65504 65504 65504 65504 65504 65504 65504 65504 65504 65504 65504 65504 65504 65504 65504 65504 65504 65504 65504 65504 65504 65504 65504 65504 65504 65504 65504 65504 65504
65504 65504 65504 65504 65504 65504 65504 65504 65504 65504 65504 65504 65504 65504 65504 65504 65504 65504 65504 65504 65504 65504 35.125 35.0313 34.9375 34.8438 34.75 34.7188 34.75 34.75 34.8125 65504 65504 34.5313 65504 35.5938 65504 65504 65504 65504 65504 65504 65504 65504 65504 65504 65504 65504 33.1563 32.6563 32.5938 32.5 32.4063 32.3125 32.25 32.1563 32.0625 32 31.9219 31.8281 31.75 31.6719 31.5938 31.5 31.4219 31.3438 31.2656 31.1875 31.1094 31.0313 30.9531 30.875 30.7969 30.7188 30.6406 30.5625 30.4844 30.4844 30.5313 30.5625 30.625 65504 65504 30.3281 65504 65504 65504 65504 65504 65504 65504 65504 65504 65504 65504 65504 65504 65504 65504 65504 29.1094 65504 28.6094 28.5469 28.4688 28.4063 28.3438 28.2813 28.2969 28.3281 28.3906 65504 65504 65504 28.1719 28.1094 28.0469 27.9844 27.9219 27.8594 27.7969 27.7344 27.7031 43.0313 42.9375 65504 65504 65504 65504 65504 65504 65504 27.0625 65504 65504 26.5469 26.5 26.4375 26.375 26.3281 26.2656 26.2188 26.1563 26.1094 26.0469 26 25.9375 25.8906 25.8438 25.7813 25.7344 25.6719 25.625 25.5781 25.5313 25.4688 25.4219 25.375 25.3281 25.2656 25.2188 25.1719 25.2031 25.2344 25.3281 54.25 54.1563 54.0625 53.9375 25.1406 53.75 53.6563 53.5313 53.4375 53.3438 53.25 53.1563 53.0625 52.9688 24.2188 24.1719 24.125 24.0781 24.0313 23.9844 23.9375 23.8906 23.8438 23.8125 23.7656 23.7188 23.6719 23.625 23.5938 23.5469 23.5 23.4688 23.4219 23.375 23.3438 23.2969 23.2656 23.2188 23.1875 23.1406 23.1094 23.0625 23.0313 22.9844 22.9531 22.9063 22.875 22.8438 22.7969 22.7656 22.7344 22.6875 22.6563 22.625 22.5938 22.5469 22.5156 22.4844 22.4531 22.4219 22.3906 22.3594 22.3125 22.2813 22.25 22.2188 22.1875 22.1563 22.125 22.0938 22.0625 22.0313 22.0156 21.9844 21.9531 21.9219 21.9063 21.875 21.8438 21.8281 21.7969 21.7656 21.75 21.7188 21.7031 21.6719 21.6563 21.625 21.6094 21.5781 21.5625 21.5313 21.5156 21.4844 21.4688 21.4531 21.4219 21.4063 21.375 21.3594 21.3438 21.3281 21.2969 21.2813 21.2656 21.25 21.2188 21.2031 21.1875 21.1719 21.1563 21.125 21.1094 21.0938 21.0781 21.0625 21.0469 21.0313 21.0156 21 20.9844 20.9688 20.9531 20.9375 20.9219 20.9063 20.8906 20.875 20.8594 20.8438 20.8438 20.8281 20.8125 20.7969 20.7813 20.7656 20.7656 20.75 20.7344 20.7188 20.7188 20.7031 20.6875 20.625 20.5469 20.5313 20.5313 20.5156 20.5 20.5 20.4844 20.4844 20.4688 20.4531 20.4531 20.4375 20.4375 20.4219 20.4219 20.4063 20.4063 20.3906 20.3906 22.25 25.7188 26.5938 29.5938 29.6406 29.625 32.75 32.7813 33.4063 34.875 36.5 38.9688 40.25 42.4063 46.6563 65504 65504 65504 65504 65504 65504 65504 65504 65504 65504 65504 65504 65504 65504 65504 65504 65504 65504 65504 65504 65504 65504 65504 65504 65504 65504 65504 65504 65504 65504 65504 65504 65504 65504 65504 65504 65504 65504 65504 65504 65504 65504 65504 65504 65504 65504 65504 65504 65504 65504 65504 65504 65504 65504 65504 65504 65504 65504 65504 65504 65504 65504 65504 65504 65504 65504 65504 65504 65504 65504 65504 65504 65504 65504 65504 65504 65504 65504 65504 65504 65504 65504 65504 65504 65504 65504 65504 65504 65504 65504 65504 65504 65504 65504 65504 65504 65504 65504 65504 65504 65504 65504
65504 65504 65504 65504 65504 65504 65504 65504 65504 65504 65504 65504 65504 65504 65504 65504 65504 65504 65504 65504 65504 65504 35.125 35.0313 34.9375 34.8438 34.75 34.7188 34.7813 34.7813 34.8125 65504 65504 34.5313 65504 35.625 65504 65504 65504 65504 65504 65504 65504 65504 65504 65504 65504 65504 33.1875 32.6875 32.5938 32.5 32.4375 32.3438 32.25 32.1875 32.0938 32 31.9375 31.8594 31.7656 31.6875 31.6094 31.5313 31.4531 31.3594 31.2813 31.2031 31.125 31.0469 30.9688 30.8906 30.8125 30.7344 30.6563 30.5781 30.5 30.5 30.5469 30.5781 30.6406 65504 65504 30.3594 65504 65504 65504 65504 65504 65504 65504 65504 65504 65504 65504 65504 65504 65504 65504 65504 29.125 65504 28.625 28.5625 28.5 28.4219 28.3594 28.2969 28.3125 28.3438 28.4063 65504 65504 65504 28.1875 65504 65504 65504 65504 65504 43.375 43.25 43.1563 43.0625 42.9688 27.5 27.4375 27.375 27.3125 27.2656 27.2031 27.1406 27.0781 27.0469 27.0156 26.5781 26.5156 26.4531 26.4063 26.3438 26.2969 26.2344 26.1719 26.125 26.0781 26.0156 25.9688 25.9063 25.8594 25.7969 25.75 25.7031 25.6406 25.5938 25.5469 25.4844 25.4375 25.3906 25.3438 25.2969 25.2344 25.1875 25.2188 25.2656 25.3438 54.3125 54.1875 54.0938 54 25.1563 53.7813 53.6875 53.5938 53.5 53.375 53.2813 53.1875 53.0938 53 52.9063 52.8125 52.7188 52.625 52.5313 52.4375 52.3438 52.25 52.2188 52.4688 24.25 53.0313 23.7344 23.6875 23.6406 23.6094 23.5625 23.5156 23.4844 23.4375 23.3906 23.3594 23.3125 23.2813 23.2344 23.2031 23.1563 23.125 23.0781 23.0469 23 22.9688 22.9219 22.8906 22.8594 22.8125 22.7813 22.75 22.7031 22.6719 22.6406 22.6094 22.5781 22.5313 22.5 22.4688 22.4375 22.4063 22.375 22.3438 22.3125 22.2813 22.25 22.2188 22.1875 22.1563 22.125 22.0938 22.0625 22.0313 22 21.9688 21.9375 21.9063 21.8906 21.8594 21.8281 21.7969 21.7656 21.75 21.7188 21.6875 21.6719 21.6406 21.625 21.5938 21.5781 21.5469 21.5313 21.5 21.4844 21.4688 21.4375 21.4219 21.4063 21.375 21.3594 21.3438 21.3125 21.2969 21.2813 21.2656 21.2344 21.2188 21.2031 21.1875 21.1719 21.1563 21.125 21.1094 21.0938 21.0781 21.0625 21.0469 21.0313 21.0156 21 20.9844 20.9688 20.9531 20.9375 20.9219 20.9063 20.8906 20.875 20.8594 20.8594 20.8438 20.8281 20.8125 20.7969 20.7813 20.7813 20.7656 20.75 20.7344 20.7344 20.7188 20.7031 20.7031 20.6875 20.6719 20.6719 20.6563 20.6406 20.6406 20.625 20.625 20.6094 20.5938 20.5938 20.5781 20.5781 20.5 20.4375 20.4219 20.4219 20.4063 20.4063 24.9219 25.75 26.625 29.625 29.6563 29.6563 32.7813 32.8125 33.4375 34.9375 39.0313 39 40.2813 42.4688 46.6875 65504 65504 65504 65504 65504 65504 65504 65504 65504 65504 65504 65504 65504 65504 65504 65504 65504 65504 65504 65504 65504 65504 65504 65504 65504 65504 65504 65504 65504 65504 65504 65504 65504 65504 65504 65504 65504 65504 65504 65504 65504 65504 65504 65504 65504 65504 65504 65504 65504 65504 65504 65504 65504 65504 65504 65504 65504 65504 65504 65504 65504 65504 65504 65504 65504 65504 65504 65504 65504 65504 65504 65504 65504 65504 65504 65504 65504 65504 65504 65504 65504 65504 65504 65504 65504 65504 65504 65504 65504 65504 65504 65504 65504 65504 65504 65504 65504 65504 65504 65504 65504 65504
65504 65504 65504 65504 65504 65504 65504 65504 65504 65504 65504 65504 65504 65504 65504 65504 65504 65504 65504 65504 65504 65504 35.1563 35.0625 34.9688 34.875 34.7813 34.75 34.7813 34.7813 34.8438 65504 65504 65504 34.5625 35.6563 65504 65504 65504 65504 65504 65504 65504 65504 65504 65504 65504 65504 33.2188 32.7188 32.625 32.5313 32.4375 32.375 32.2813 32.1875 32.125 32.0313 31.9531 31.875 31.7969 31.7031 31.625 31.5469 31.4688 31.3906 31.3125 31.2344 31.1406 31.0625 30.9844 30.9063 30.8281 30.75 30.6719 30.5938 30.5313 30.5156 30.5781 30.5938 30.6563 65504 65504 65504 30.375 65504 65504 65504 65504 65504 65504 65504 65504 65504 65504 65504 65504 65504 65504 65504 29.1563 65504 28.6563 28.5781 28.5156 28.4531 28.375 28.3125 28.3281 28.375 28.4219 65504 65504 65504 28.2188 65504 65504 65504 65504 65504 43.4063 43.2813 43.1875 43.0938 43 65504 65504 65504 65504 65504 65504 65504 27.1094 65504 65504 26.5938 26.5313 26.4844 26.4219 26.3594 26.3125 26.25 26.2031 26.1406 26.0938 26.0313 25.9844 25.9219 25.875 25.8281 25.7656 25.7188 25.6719 25.6094 25.5625 25.5156 25.4531 25.4063 25.3594 25.3125 25.2656 25.2031 25.2344 25.2813 25.3594 54.3438 54.25 54.125 54.0313 25.1719 53.8438 53.7188 53.625 53.5313 53.4375 53.3438 53.25 53.125 53.0313 52.9375 52.8438 52.75 52.6563 52.5625 52.4688 52.375 52.2813 52.25 52.5 24.2656 53.0625 65504 23.8281 23.7969 23.75 23.7031 23.6719 23.625 23.5938 23.5625 23.6719 23.7031 65504 23.2813 23.25 23.2031 23.1719 23.125 23.0938 23.0625 23.0156 22.9844 22.9375 22.9063 22.875 22.8281 22.7969 22.7656 22.7344 22.6875 22.6563 22.625 22.5938 22.5469 22.5156 22.4844 22.4531 22.4219 22.3906 22.3594 22.3281 22.2969 22.2656 22.2344 22.2031 22.1719 22.1406 22.1094 22.0781 22.0469 22.0156 21.9844 21.9688 21.9375 21.9063 21.875 21.8438 21.8281 21.7969 21.7656 21.7344 21.7188 21.6875 21.6563 21.6406 21.6094 21.5938 21.5625 21.5313 21.5156 21.4844 21.4688 21.4375 21.4219 21.3906 21.375 21.3594 21.3281 21.3125 21.2969 21.2813 21.25 21.2344 21.2188 21.2031 21.1875 21.1719 21.1406 21.125 21.1094 21.0938 21.0781 21.0625 21.0469 21.0313 21.0156 21 20.9844 20.9688 20.9531 20.9375 20.9219 20.9063 20.8906 20.8906 20.875 20.8594 20.8438 20.8281 20.8125 20.8125 20.7969 20.7813 20.7656 20.75 20.75 20.7344 20.7188 20.7188 20.7031 20.6875 20.6875 20.6719 20.6563 20.6563 20.6406 20.6406 20.625 20.6094 20.6094 20.5938 20.5938 20.5781 20.5781 20.5625 20.5625 20.9531 21.6094 24.9531 25.7813 26.6563 29.6406 29.6875 29.6875 32.8125 32.8438 33.5 34.9688 39.0625 39.0313 40.3438 42.5313 46.7188 65504 65504 65504 65504 65504 65504 65504 65504 65504 65504 65504 65504 65504 65504 65504 65504 65504 65504 65504 65504 65504 65504 65504 65504 65504 65504 65504 65504 65504 65504 65504 65504 65504 65504 65504 65504 65504 65504 65504 65504 65504 65504 65504 65504 65504 65504 65504 65504 65504 65504 65504 65504 65504 65504 65504 65504 65504 65504 65504 65504 65504 65504 65504 65504 65504 65504 65504 65504 65504 65504 65504 65504 65504 65504 65504 65504 65504 65504 65504 65504 65504 65504 65504 65504 65504 65504 65504 65504 65504 65504 65504 65504 65504 65504 65504 65504 65504 65504 65504 65504 65504 65504
65504 65504 65504 65504 65504 65504 65504 65504 65504 65504 65504 65504 65504 65504 65504 65504 65504 65504 65504 65504 65504 65504 35.1875 35.0938 35 34.9063 34.8125 34.75 34.8125 34.8125 34.8438 65504 65504 65504 34.5625 35.6563 65504 65504 65504 65504 65504 65504 65504 65504 65504 65504 65504 65504 33.2188 32.7188 32.6563 32.5625 32.4688 32.375 32.3125 32.2188 32.125 32.0625 31.9844 31.8906 31.8125 31.7344 31.6563 31.5625 31.4844 31.4063 31.3281 31.25 31.1719 31.0938 31.0156 30.9375 30.8594 30.7813 30.7031 30.625 30.5469 30.5313 30.5938 30.6094 30.6719 65504 65504 65504 30.3906 65504 65504 65504 65504 65504 65504 65504 65504 65504 65504 65504 65504 65504 65504 65504 29.1719 65504 28.6719 28.6094 28.5313 28.4688 28.4063 28.3438 28.3438 28.3906 28.4375 65504 65504 65504 65504 28.2344 65504 65504 65504 65504 43.4375 43.3125 43.2188 43.125 43.0313 65504 65504 65504 65504 65504 65504 65504 27.125 65504 65504 26.6094 26.5469 26.5 26.4375 26.3906 26.3281 26.2813 26.2188 26.1563 26.1094 26.0625 26 25.9531 25.8906 25.8438 25.7813 25.7344 25.6875 25.625 25.5781 25.5313 25.4844 25.4219 25.375 25.3281 25.2813 25.2344 25.25 25.2969 25.375 65504 65504 65504 65504 25.1875 65504 65504 65504 65504 65504 65504 65504 53.1875 53.0938 53 52.9063 52.8125 52.7188 52.625 52.5313 52.4375 52.3438 52.2813 52.5625 24.2813 65504 65504 23.8438 23.8125 23.7656 23.7344 23.6875 23.6563 23.6094 23.5781 23.6875 23.7188 65504 65504 65504 65504 23.6094 65504 65504 65504 65504 65504 65504 65504 65504 65504 22.8438 22.8125 22.7813 22.75 22.7031 22.6719 22.6406 22.6094 22.5781 22.5313 22.5 22.4688 22.4375 22.4063 22.375 22.3438 22.3125 22.2813 22.25 22.2188 22.1875 22.1563 22.125 22.0938 22.0625 22.0469 22.0156 21.9844 21.9531 21.9219 21.8906 21.875 21.8438 21.8125 21.7969 21.7656 21.7344 21.7188 21.6875 21.6563 21.6406 21.6094 21.5781 21.5625 21.5313 21.5156 21.4844 21.4688 21.4375 21.4219 21.3906 21.375 21.3594 21.3281 21.3125 21.2813 21.2656 21.25 21.2188 21.2031 21.1875 21.1719 21.1406 21.125 21.1094 21.0938 21.0781 21.0625 21.0469 21.0313 21.0156 21 20.9844 20.9688 20.9531 20.9375 20.9219 20.9063 20.9063 20.8906 20.875 20.8594 20.8438 20.8281 20.8281 20.8125 20.7969 20.7813 20.7656 20.7656 20.75 20.7344 20.7344 20.7188 20.7031 20.7031 20.6875 20.6719 20.6719 20.6563 20.6563 20.6406 20.625 20.625 20.6094 20.6094 20.5938 20.5938 20.5781 20.5781 20.9844 24.2031 24.9844 25.8125 26.6875 29.6563 29.7031 29.7344 32.8438 32.875 33.5313 35.0313 39.0938 39.0625 40.4063 42.5938 46.75 65504 65504 65504 65504 65504 65504 65504 65504 65504 65504 65504 65504 65504 65504 65504 65504 65504 65504 65504 65504 65504 65504 65504 65504 65504 65504 65504 65504 65504 65504 65504 65504 65504 65504 65504 65504 65504 65504 65504 65504 65504 65504 65504 65504 65504 65504 65504 65504 65504 65504 65504 65504 65504 65504 65504 65504 65504 65504 65504 65504 65504 65504 65504 65504 65504 65504 65504 65504 65504 65504 65504 65504 65504 65504 65504 65504 65504 65504 65504 65504 65504 65504 65504 65504 65504 65504 65504 65504 65504 65504 65504 65504 65504 65504 65504 65504 65504 65504 65504 65504 65504 65504
65504 65504 65504 65504 65504 65504 65504 65504 65504 65504 65504 65504 65504 65504 65504 65504 65504 65504 65504 65504 65504 65504 35.2188 35.125 35.0313 34.9063 34.8125 34.7813 34.8125 34.8125 34.875 65504 65504 65504 34.5938 35.6875 65504 65504 65504 65504 65504 65504 65504 65504 65504 65504 65504 65504 33.25 32.75 32.6563 32.5938 32.5 32.4063 32.3125 32.25 32.1563 32.0625 32 31.9219 31.8281 31.75 31.6719 31.5938 31.5156 31.4219 31.3438 31.2656 31.1875 31.1094 31.0313 30.9531 30.875 30.7969 30.7188 30.6406 30.5625 30.5469 30.6094 30.625 30.6875 65504 65504 65504 30.4063 65504 65504 65504 65504 65504 65504 65504 65504 65504 65504 65504 65504 65504 65504 65504 29.1875 65504 28.6875 28.625 28.5625 28.4844 28.4219 28.3594 28.3594 28.4063 28.4531 65504 65504 65504 65504 28.25 65504 65504 65504 65504 43.4688 43.3438 43.25 43.1563 43.0625 65504 65504 65504 65504 65504 65504 65504 27.1406 65504 65504 26.625 26.5781 26.5156 26.4688 26.4063 26.3438 26.2969 26.2344 26.1875 26.125 26.0781 26.0156 25.9688 25.9063 25.8594 25.8125 25.75 25.7031 25.6563 25.5938 25.5469 25.5 25.4531 25.3906 25.3438 25.2969 25.25 25.2656 25.3125 25.3906 25.375 25.3281 25.2813 25.2656 25.2031 65504 65504 65504 65504 65504 65504 65504 65504 65504 65504 65504 65504 65504 65504 65504 65504 65504 65504 65504 24.2969 65504 65504 23.8594 23.8281 23.7813 23.75 23.7031 23.6719 23.625 23.5938 23.7031 23.7344 65504 65504 65504 65504 23.625 65504 65504 65504 65504 65504 65504 65504 65504 65504 65504 65504 65504 65504 65504 65504 65504 65504 65504 65504 65504 65504 22.4844 22.4531 22.4219 22.3906 22.3594 22.3281 22.2969 22.2656 22.2344 22.2031 22.1719 22.1563 22.125 22.0938 22.0625 22.0313 22 21.9688 21.9531 21.9219 21.8906 21.8594 21.8438 21.8125 21.7813 21.7656 21.7344 21.7031 21.6875 21.6563 21.6406 21.6094 21.5781 21.5625 21.5313 21.5156 21.4844 21.4688 21.4375 21.4219 21.4063 21.375 21.3594 21.3281 21.3125 21.2969 21.2656 21.25 21.2344 21.2188 21.1875 21.1719 21.1563 21.1406 21.1094 21.0938 21.0781 21.0625 21.0469 21.0313 21 20.9844 20.9688 20.9531 20.9375 20.9375 20.9219 20.9063 20.8906 20.875 20.8594 20.8438 20.8438 20.8281 20.8125 20.7969 20.7969 20.7813 20.7656 20.75 20.75 20.7344 20.7188 20.7188 20.7031 20.6875 20.6875 20.6719 20.6719 20.6563 20.6406 20.6406 20.625 20.625 20.6094 20.6094 20.5938 20.5938 21 24.2344 25 25.8281 26.7188 29.6875 29.7344 29.7656 32.8438 32.9063 33.5625 35.0625 39.0938 39.0938 40.4688 42.6563 46.8125 47.1875 46.0938 46.125 46.1563 46.1875 46.25 46.2813 65504 65504 65504 65504 65504 65504 65504 65504 65504 65504 65504 65504 65504 65504 65504 65504 65504 65504 65504 65504 65504 65504 65504 65504 65504 65504 65504 65504 65504 65504 65504 65504 65504 65504 65504 65504 65504 65504 65504 65504 65504 65504 65504 65504 65504 65504 65504 65504 65504 65504 65504 65504 65504 65504 65504 65504 65504 65504 65504 65504 65504 65504 65504 65504 65504 65504 65504 65504 65504 65504 65504 65504 65504 65504 65504 65504 65504 65504 65504 65504 65504 65504 65504 65504 65504 65504 65504 65504 65504 65504 65504 65504 65504 65504 65504
65504 65504 65504 65504 65504 65504 65504 65504 65504 65504 65504 65504 65504 65504 65504 65504 65504 65504 65504 65504 65504 65504 35.2188 35.125 35.0313 34.9375 34.8438 34.7813 34.8438 34.8438 34.875 65504 65504 65504 34.5938 65504 65504 65504 65504 65504 65504 65504 65504 65504 65504 65504 65504 65504 33.2813 32.7813 32.6875 32.5938 32.5313 32.4375 32.3438 32.25 32.1875 32.0938 32 31.9375 31.8594 31.7813 31.6875 31.6094 31.5313 31.4531 31.375 31.2969 31.2188 31.1406 31.0469 30.9688 30.8906 30.8125 30.75 30.6719 30.5938 30.5625 30.6406 30.6406 30.7031 65504 65504 65504 30.4219 65504 65504 65504 65504 65504 65504 65504 65504 65504 65504 65504 65504 65504 65504 65504 29.2188 65504 28.7188 28.6406 28.5781 28.5156 28.4375 28.375 28.375 28.4375 28.4688 65504 65504 65504 65504 28.2656 65504 65504 65504 65504 43.5 43.375 43.2813 43.1875 43.0938 65504 65504 65504 65504 65504 65504 65504 27.1563 65504 65504 26.6563 26.5938 26.5313 26.4844 26.4219 26.375 26.3125 26.2656 26.2031 26.1563 26.0938 26.0469 25.9844 25.9375 25.875 25.8281 25.7813 25.7188 25.6719 25.625 25.5625 25.5156 25.4688 25.4219 25.375 25.3125 25.2656 25.2813 25.3438 25.4063 65504 65504 65504 65504 25.2188 65504 25.1094 25.0625 25.0156 24.9688 24.9219 24.875 24.8281 24.7813 24.7656 24.75 65504 65504 65504 65504 65504 65504 65504 65504 24.3125 65504 65504 23.8906 23.8438 23.8125 23.7656 23.7344 23.6875 23.6563 23.6094 23.7188 23.75 65504 65504 65504 65504 23.6406 65504 65504 65504 65504 65504 65504 65504 65504 65504 65504 65504 65504 65504 65504 65504 65504 65504 65504 65504 65504 65504 22.9063 65504 65504 65504 22.5 22.4844 22.4531 22.4219 22.3906 22.3594 22.3438 22.3125 22.1719 22.1406 22.1094 22.0781 22.0469 22.0313 22 21.9688 21.9375 21.9219 21.8906 21.8594 21.8281 21.8125 21.7813 21.7656 21.7344 21.7031 21.6875 21.6563 21.6406 21.6094 21.5938 21.5625 21.5469 21.5156 21.5 21.4688 21.4531 21.4219 21.4063 21.3906 21.3594 21.3438 21.3125 21.2969 21.2813 21.2656 21.2344 21.2188 21.2031 21.1875 21.1563 21.1406 21.125 21.1094 21.0938 21.0781 21.0469 21.0313 21.0156 21 20.9844 20.9688 20.9531 20.9375 20.9219 20.9063 20.8906 20.875 20.8594 20.8438 20.8281 20.8125 20.8125 20.7969 20.7813 20.7656 20.7656 20.75 20.7344 20.7344 20.7188 20.7031 20.7031 20.6875 20.6875 20.6719 20.6719 20.6563 20.6406 20.6406 20.625 20.625 20.6094 20.6094 21.0313 24.25 25.0313 25.8594 26.75 29.7031 29.75 29.7969 32.875 32.9375 33.625 35.125 39.125 39.125 40.5313 42.7188 46.4063 46.6563 45.5938 45.625 46.0938 46.0625 46.0625 46.0625 46.0625 46.0313 46.0313 46.0313 46.0313 46.0313 46.0313 46.0313 46.0625 46.125 46.1563 46.1875 46.2188 65504 65504 65504 65504 65504 65504 65504 65504 65504 65504 65504 65504 65504 65504 65504 65504 65504 65504 65504 65504 65504 65504 65504 65504 65504 65504 65504 65504 65504 65504 65504 65504 65504 65504 65504 65504 65504 65504 65504 65504 65504 65504 65504 65504 65504 65504 65504 65504 65504 65504 65504 65504 65504 65504 65504 65504 65504 65504 65504 65504 65504 65504 65504 65504 65504 65504 65504 65504 65504 65504 65504 65504 65504 65504 65504 65504 65504 65504 65504 65504 65504 65504
65504 65504 65504 65504 65504 65504 65504 65504 65504 65504 65504 65504 65504 65504 65504 65504 65504 65504 65504 65504 65504 65504 35.25 35.1563 35.0625 34.9688 34.875 34.8125 34.8438 34.8438 34.9063 65504 65504 65504 34.625 65504 65504 65504 65504 65504 65504 65504 65504 65504 65504 65504 65504 65504 33.3125 32.7813 32.7188 32.625 32.5313 32.4688 32.375 32.2813 32.2188 32.125 32.0313 31.9688 31.875 31.7969 31.7188 31.6406 31.5469 31.4688 31.3906 31.3125 31.2344 31.1563 31.0781 31 30.9219 30.8438 30.7656 30.6875 30.6094 30.5781 30.6563 30.6563 30.7188 65504 65504 65504 30.4375 65504 65504 65504 65504 65504 65504 65504 65504 65504 65504 65504 65504 65504 65504 65504 29.2344 65504 28.7344 28.6719 28.5938 28.5313 28.4688 28.4063 28.4063 28.4531 28.4844 65504 65504 65504 65504 28.2813 65504 65504 65504 65504 43.5313 43.4375 43.3125 43.2188 43.125 65504 65504 65504 65504 65504 65504 65504 27.1875 65504 65504 26.6719 26.6094 26.5625 26.5 26.4531 26.3906 26.3281 26.2813 26.2188 26.1719 26.1094 26.0625 26 25.9531 25.9063 25.8438 25.7969 25.75 25.6875 25.6406 25.5938 25.5313 25.4844 25.4375 25.3906 25.3438 25.2813 25.2969 25.3594 25.4219 65504 65504 65504 65504 25.2344 65504 65504 65504 65504 65504 65504 65504 65504 65504 65504 65504 65504 24.625 24.5781 24.5469 24.5 24.4531 24.4063 24.375 24.3281 24.2969 24.2813 23.9063 23.8594 23.8281 23.7813 23.75 23.7031 23.6719 23.625 23.7344 23.7656 65504 65504 65504 65504 23.6719 65504 65504 65504 65504 65504 65504 65504 65504 65504 65504 65504 65504 65504 65504 65504 65504 65504 65504 65504 65504 65504 22.9219 65504 65504 65504 22.5313 22.5 22.4688 22.4375 22.4063 22.3906 22.3594 22.3281 22.2969 22.2813 22.25 22.2188 22.2031 22.1719 22.1406 22.125 22.0938 22.0625 22.0469 22.0156 21.8906 21.8594 21.8281 21.8125 21.7813 21.75 21.7344 21.7031 21.6875 21.6563 21.6406 21.6094 21.5938 21.5625 21.5469 21.5156 21.5 21.4688 21.4531 21.4375 21.4063 21.3906 21.375 21.3438 21.3281 21.3125 21.2813 21.2656 21.25 21.2344 21.2031 21.1875 21.1719 21.1563 21.1406 21.125 21.0938 21.0781 21.0625 21.0469 21.0313 21.0156 21 20.9844 20.9688 20.9531 20.9375 20.9219 20.9063 20.8906 20.875 20.8594 20.8438 20.8438 20.8281 20.8125 20.7969 20.7813 20.7656 20.7656 20.75 20.7344 20.7188 20.7031 20.7031 20.6875 20.6875 20.6719 20.6563 20.6563 20.6406 20.6406 20.625 20.625 24.125 24.2813 25.0625 25.8906 26.7813 29.7344 29.7813 29.8281 32.9063 32.9375 33.6563 35.1563 39.1563 39.1563 40.5938 42.7813 45.9063 46.1563 45.0938 45.125 46.125 46.0938 46.0938 46.0938 46.0938 46.0938 46.0625 46.0625 46.0625 46.0625 46.0625 46.0625 46.0625 46.0313 46.0313 46.0313 46.0313 46.0313 46.0313 46.0313 46.0313 46.0313 46.0313 46.0313 46.0313 46.0625 46.125 46.1563 46.1875 46.25 65504 65504 65504 65504 65504 65504 65504 65504 65504 65504 65504 65504 65504 65504 65504 65504 65504 65504 65504 65504 65504 65504 65504 65504 65504 65504 65504 65504 65504 65504 65504 65504 65504 65504 65504 65504 65504 65504 65504 65504 65504 65504 65504 65504 65504 65504 65504 65504 65504 65504 65504 65504 65504 65504 65504 65504 65504 65504 65504 65504 65504 65504 65504 65504 65504 65504 65504 65504 65504
65504 65504 65504 65504 65504 65504 65504 65504 65504 65504 65504 65504 65504 65504 65504 65504 65504 65504 65504 65504 65504 65504 35.2813 35.1875 35.0938 35 34.9063 34.8125 34.875 34.875 34.9063 65504 65504 65504 34.625 65504 65504 65504 65504 65504 65504 65504 65504 65504 65504 65504 65504 65504 33.3125 32.8125 32.7188 32.6563 32.5625 32.4688 32.4063 32.3125 32.2188 32.1563 32.0625 31.9844 31.9063 31.8125 31.7344 31.6563 31.5781 31.5 31.4219 31.3438 31.25 31.1719 31.0938 31.0156 30.9375 30.8594 30.7813 30.7031 30.625 30.5938 30.6719 30.6719 30.7344 65504 65504 65504 30.4531 65504 65504 65504 65504 65504 65504 65504 65504 65504 65504 65504 65504 65504 65504 65504 29.25 65504 28.75 28.6875 28.625 28.5469 28.4844 28.4219 28.4219 28.4688 28.5 28.5781 65504 65504 65504 28.2969 65504 65504 65504 65504 43.5625 43.4688 43.375 43.25 43.1563 65504 65504 65504 65504 65504 65504 65504 27.2031 65504 65504 26.6875 26.6406 26.5781 26.5156 26.4688 26.4063 26.3594 26.2969 26.25 26.1875 26.1406 26.0781 26.0313 25.9688 25.9219 25.875 25.8125 25.7656 25.7188 25.6563 25.6094 25.5625 25.5156 25.4531 25.4063 25.3594 25.3125 25.3125 25.375 25.4375 65504 65504 65504 65504 25.25 65504 65504 65504 65504 65504 65504 65504 65504 65504 65504 65504 65504 65504 65504 65504 65504 65504 65504 65504 24.3594 65504 65504 23.9219 23.8906 23.8438 23.8125 23.7656 23.7344 23.6875 23.6563 23.75 23.7813 23.8594 23.8438 65504 65504 23.6875 65504 65504 65504 65504 65504 65504 65504 65504 65504 65504 65504 65504 65504 65504 65504 65504 65504 65504 65504 65504 65504 22.9531 65504 65504 65504 22.5469 22.5156 22.4844 22.4531 22.4375 22.4063 22.375 22.3438 22.3125 22.2969 22.2656 22.2344 22.2188 22.1875 22.1563 22.1406 22.1094 22.0938 22.0625 22.0313 22.0156 21.9844 21.9688 21.9375 21.9219 21.8906 21.875 21.8594 21.8281 21.8125 21.7813 21.7656 21.75 21.6094 21.5938 21.5625 21.5469 21.5156 21.5 21.4844 21.4531 21.4375 21.4219 21.3906 21.375 21.3594 21.3281 21.3125 21.2969 21.2813 21.25 21.2344 21.2188 21.2031 21.1875 21.1719 21.1406 21.125 21.1094 21.0938 21.0781 21.0625 21.0469 21.0313 21.0156 21 20.9844 20.9688 20.9531 20.9375 20.9219 20.9063 20.8906 20.875 20.875 20.8594 20.8438 20.8281 20.8125 20.7969 20.7969 20.7813 20.7656 20.75 20.75 20.7344 20.7188 20.7031 20.7031 20.6875 20.6719 20.6719 20.6563 20.6563 24.1406 24.3125 25.0938 25.9219 26.8125 29.75 29.7969 29.875 32.9375 32.9688 33.7188 35.2188 39.1875 39.1875 40.625 42.8438 45.4063 44.6875 44.625 44.6563 46.1875 46.2188 46.1875 46.1875 46.1875 46.1875 46.1563 46.1563 46.1563 46.1563 46.1563 46.1563 46.0938 46.0938 46.0938 46.0625 46.0625 46.0625 46.0625 46.0625 46.0625 46.0625 46.0625 46.0625 46.0625 46.0625 46.0625 46.0625 45.6875 45.75 65504 65504 65504 65504 65504 65504 65504 65504 65504 65504 65504 65504 65504 65504 65504 65504 65504 65504 65504 65504 65504 65504 65504 65504 65504 65504 65504 65504 65504 65504 65504 65504 65504 65504 65504 65504 65504 65504 65504 65504 65504 65504 65504 65504 65504 65504 65504 65504 65504 65504 65504 65504 65504 65504 65504 65504 65504 65504 65504 65504 65504 65504 65504 65504 65504 65504 65504 65504 65504
65504 65504 65504 65504 65504 65504 65504 65504 65504 65504 65504 65504 65504 65504 65504 65504 65504 65504 65504 65504 65504 65504 35.3125 35.2188 35.125 35 34.9063 34.8438 34.875 34.875 34.9375 65504 65504 65504 34.6563 65504 65504 65504 65504 65504 65504 65504 65504 65504 65504 65504 65504 65504 33.3438 32.8438 32.75 32.6563 32.5938 32.5 32.4063 32.3438 32.25 32.1563 32.0938 32 31.9219 31.8438 31.7656 31.6875 31.5938 31.5156 31.4375 31.3594 31.2813 31.2031 31.125 31.0469 30.9688 30.8906 30.8125 30.7344 30.6563 30.6094 30.6875 30.6875 30.75 65504 65504 65504 30.4688 65504 65504 65504 65504 65504 65504 65504 65504 65504 65504 65504 65504 65504 65504 65504 29.2813 65504 28.7813 28.7031 28.6406 28.5781 28.5156 28.4375 28.4375 28.5 28.5156 28.5938 65504 65504 65504 28.3125 65504 65504 65504 65504 43.5938 43.5 43.4063 43.2813 43.1875 65504 65504 65504 65504 65504 65504 65504 27.2188 65504 65504 26.7188 26.6563 26.5938 26.5469 26.4844 26.4375 26.375 26.3281 26.2656 26.2188 26.1563 26.1094 26.0469 26 25.9375 25.8906 25.8438 25.7813 25.7344 25.6875 25.625 25.5781 25.5313 25.4844 25.4219 25.375 25.3281 25.3281 25.3906 25.4531 65504 65504 65504 65504 25.2656 65504 65504 65504 65504 65504 65504 65504 65504 65504 65504 65504 65504 65504 65504 65504 65504 65504 65504 65504 24.375 65504 65504 23.9375 23.9063 23.8594 23.8281 23.7813 23.75 23.7031 23.6719 23.7656 23.7969 65504 65504 65504 23.75 23.7031 23.6719 23.6406 23.5938 23.5625 23.5313 23.4844 23.4688 23.4531 23.4375 65504 65504 65504 65504 65504 65504 65504 65504 65504 65504 65504 65504 22.9688 65504 65504 65504 22.5625 22.5313 22.5 22.4844 22.4531 22.4219 22.3906 22.3594 22.3438 22.3125 22.2813 22.2656 22.2344 22.2031 22.1875 22.1563 22.125 22.1094 22.0781 22.0625 22.0313 22.0156 21.9844 21.9688 21.9375 21.9219 21.8906 21.875 21.8438 21.8281 21.8125 21.7813 21.7656 21.75 21.7188 21.7031 21.6875 21.6563 21.6406 21.625 21.6094 21.5781 21.6094 21.6875 65504 21.4063 21.375 21.3594 21.3438 21.3281 21.2969 21.2813 21.2656 21.25 21.2344 21.2188 21.1875 21.1719 21.1563 21.1406 21.125 21.1094 21.0938 21.0781 21.0625 21.0469 21.0313 21.0156 21 20.9844 20.9688 20.9531 20.9375 20.9219 20.9063 20.9063 20.8906 20.875 20.8594 20.8438 20.8438 20.8281 20.8125 20.7969 20.7813 20.7813 20.7656 20.75 20.75 20.7344 20.7188 20.7188 20.7031 24.1719 24.1563 24.3438 25.125 25.9531 26.8438 29.7813 29.8281 29.9063 32.9688 33 33.75 35.25 39.2188 39.2188 40.6875 42.9063 45.1563 44.125 44.1563 44.4063 45.6875 45.7188 45.75 45.7813 45.8125 45.8438 45.875 45.9375 45.9688 46 46.0313 46.0625 46.0938 46.125 46.1875 46.1563 46.1563 46.1563 46.1563 46.1563 46.1563 46.1563 46.1563 46.1563 46.1563 46.1563 46.125 46.125 45.2188 45.25 65504 65504 65504 65504 65504 65504 65504 65504 65504 65504 65504 65504 65504 65504 65504 65504 65504 65504 65504 65504 65504 65504 65504 65504 65504 65504 65504 65504 65504 65504 65504 65504 65504 65504 65504 65504 65504 65504 65504 65504 65504 65504 65504 65504 65504 65504 65504 65504 65504 65504 65504 65504 65504 65504 65504 65504 65504 65504 65504 65504 65504 65504 65504 65504 65504 65504 65504 65504 65504
65504 65504 65504 65504 65504 65504 65504 65504 65504 65504 65504 65504 65504 65504 65504 65504 65504 65504 65504 65504 65504 65504 35.3125 35.2188 35.125 35.0313 34.9375 34.8438 34.9063 34.9063 34.9375 65504 65504 65504 34.6563 65504 65504 65504 65504 65504 65504 65504 65504 65504 65504 65504 65504 65504 33.375 32.875 32.7813 32.6875 32.5938 32.5313 32.4375 32.3438 32.2813 32.1875 32.0938 32.0313 31.9531 31.8594 31.7813 31.7031 31.625 31.5469 31.4688 31.375 31.2969 31.2188 31.1406 31.0625 30.9844 30.9063 30.8281 30.75 30.6719 30.6406 30.7031 30.7031 30.7656 65504 65504 65504 30.4844 65504 65504 65504 65504 65504 65504 65504 65504 65504 65504 65504 65504 65504 65504 65504 29.2969 65504 28.7969 28.7344 28.6563 28.5938 28.5313 28.4688 28.4531 28.5156 28.5313 28.625 65504 65504 65504 28.3438 65504 65504 65504 65504 43.625 43.5313 43.4375 43.3438 43.2188 65504 65504 65504 65504 65504 65504 65504 27.25 65504 65504 26.7344 26.6719 26.625 26.5625 26.5156 26.4531 26.3906 26.3438 26.2813 26.2344 26.1719 26.125 26.0625 26.0156 25.9688 25.9063 25.8594 25.8125 25.75 25.7031 25.6563 25.5938 25.5469 25.5 25.4531 25.4063 25.3438 25.3438 25.4219 25.4688 65504 65504 65504 65504 25.2813 65504 65504 65504 65504 65504 65504 65504 65504 65504 65504 65504 65504 65504 65504 65504 65504 65504 65504 65504 24.3906 65504 65504 23.9688 23.9219 23.8906 23.8438 23.8125 23.7656 23.7344 23.6875 23.7813 23.8125 65504 65504 65504 65504 23.7188 65504 65504 65504 65504 65504 65504 65504 65504 65504 65504 23.3438 23.3125 23.2656 23.2344 23.2031 23.1719 23.1406 23.1094 23.1094 23.0938 65504 22.9844 65504 65504 65504 22.5781 22.5469 22.5313 22.5 22.4688 22.4375 22.4063 22.3906 22.3594 22.3281 22.2969 22.2813 22.25 22.2188 22.2031 22.1719 22.1563 22.125 22.0938 22.0781 22.0469 22.0313 22 21.9844 21.9531 21.9375 21.9063 21.8906 21.875 21.8438 21.8281 21.7969 21.7813 21.7656 21.7344 21.7188 21.7031 21.6875 21.6563 21.6406 21.625 21.6094 21.625 21.7031 65504 65504 65504 65504 65504 21.7344 65504 65504 65504 65504 65504 65504 65504 21.2188 21.2031 21.1875 21.1719 21.1563 21.1406 21.125 21.1094 21.0938 21.0781 21.0625 21.0469 21.0313 21.0156 21 20.9844 20.9688 20.9531 20.9531 20.9375 20.9219 20.9063 20.8906 20.875 20.875 20.8594 20.8438 20.8281 20.8281 20.8125 20.7969 20.7969 20.7813 20.7656 20.7656 20.75 24.1875 24.1875 24.3594 25.1563 25.9844 26.875 29.8125 29.8438 29.9531 33 33.0313 33.7813 35.3125 39.25 39.25 40.75 42.9688 44.6875 43.6563 43.6875 44.4688 45.2188 45.25 45.2813 45.3125 45.3438 45.375 45.4063 45.4375 45.4688 45.5 45.5625 45.5938 45.625 45.6563 45.6875 45.7188 45.7813 45.8125 45.8438 45.875 45.9063 45.9688 46 46.0313 46.0625 46.125 46.1563 46.1875 44.75 44.7813 44.875 65504 65504 65504 65504 65504 65504 65504 65504 65504 65504 65504 65504 65504 65504 65504 65504 65504 65504 65504 65504 65504 65504 65504 65504 65504 65504 65504 65504 65504 65504 65504 65504 65504 65504 65504 65504 65504 65504 65504 65504 65504 65504 65504 65504 65504 65504 65504 65504 65504 65504 65504 65504 65504 65504 65504 65504 65504 65504 65504 65504 65504 65504 65504 65504 65504 65504 65504 65504
65504 65504 65504 65504 65504 65504 65504 65504 65504 65504 65504 65504 65504 65504 65504 65504 65504 65504 65504 65504 65504 65504 35.3438 35.25 35.1563 35.0625 34.9688 34.875 34.9063 34.9063 34.9688 65504 65504 65504 34.6875 65504 65504 65504 65504 65504 65504 65504 65504 65504 65504 65504 65504 65504 33.4063 32.875 32.8125 32.7188 32.625 32.5625 32.4688 32.375 32.2813 32.2188 32.125 32.0313 31.9688 31.8906 31.8125 31.7188 31.6406 31.5625 31.4844 31.4063 31.3281 31.25 31.1719 31.0938 31.0156 30.9375 30.8594 30.7813 30.7031 30.6563 30.7188 30.7188 30.7969 65504 65504 65504 30.5156 65504 65504 65504 65504 65504 65504 65504 65504 65504 65504 65504 65504 65504 65504 65504 29.3281 65504 28.8281 28.75 28.6875 28.625 28.5469 28.4844 28.4688 28.5469 28.5469 28.6406 65504 65504 65504 28.3594 65504 65504 65504 65504 43.6563 43.5625 43.4688 43.375 43.2813 65504 65504 65504 65504 65504 65504 65504 27.2656 65504 65504 26.75 26.7031 26.6406 26.5781 26.5313 26.4688 26.4219 26.3594 26.3125 26.25 26.2031 26.1406 26.0938 26.0313 25.9844 25.9375 25.875 25.8281 25.7813 25.7188 25.6719 25.625 25.5625 25.5156 25.4688 25.4219 25.375 25.3594 25.4375 25.4844 65504 65504 65504 65504 25.2969 65504 65504 65504 65504 65504 65504 65504 65504 65504 65504 65504 65504 65504 65504 65504 65504 65504 65504 65504 24.4063 65504 65504 23.9844 23.9375 23.9063 23.8594 23.8281 23.7813 23.75 23.7031 23.8125 23.8281 65504 65504 65504 65504 23.75 65504 65504 65504 65504 65504 65504 65504 65504 65504 65504 65504 65504 65504 65504 65504 65504 65504 65504 65504 65504 65504 23 22.9688 22.9531 22.9219 22.6094 22.5781 22.5469 22.5156 22.4844 22.4531 22.4375 22.4063 22.375 22.3438 22.3281 22.2969 22.2656 22.25 22.2188 22.1875 22.1719 22.1406 22.125 22.0938 22.0781 22.0469 22.0313 22 21.9844 21.9531 21.9375 21.9063 21.8906 21.8594 21.8438 21.8281 21.7969 21.7813 21.7656 21.7344 21.7188 21.7031 21.6875 21.6563 21.6406 21.625 21.6406 21.7344 65504 65504 65504 65504 65504 21.75 65504 65504 65504 65504 65504 65504 65504 65504 65504 65504 65504 65504 65504 65504 65504 65504 65504 65504 65504 21.0781 21.0625 21.0469 21.0313 21.0156 21 21 20.9844 20.9688 20.9531 20.9375 20.9219 20.9219 20.9063 20.8906 20.875 20.875 20.8594 20.8438 20.8281 20.8281 20.8125 20.7969 24.1719 24.2188 24.2031 24.3906 25.1719 26.0156 26.9063 29.8281 29.875 29.9844 33 33.0625 33.8438 35.3438 39.2813 39.2813 40.8125 43.0313 44.2188 43.2188 43.25 44.7188 44.75 44.7813 44.8125 44.8438 44.875 44.9063 44.9375 44.9688 45 45.0313 45.0625 45.125 45.1563 45.1875 45.2188 45.25 45.2813 45.3438 45.375 45.4063 45.4375 45.4688 45.5313 45.5625 45.5938 45.625 45.6875 45.7188 44.5 44.3125 44.3438 65504 65504 65504 65504 65504 65504 65504 65504 65504 65504 65504 65504 65504 65504 65504 65504 65504 65504 65504 65504 65504 65504 65504 65504 65504 65504 65504 65504 65504 65504 65504 65504 65504 65504 65504 65504 65504 65504 65504 65504 65504 65504 65504 65504 65504 65504 65504 65504 65504 65504 65504 65504 65504 65504 65504 65504 65504 65504 65504 65504 65504 65504 65504 65504 65504 65504 65504 65504
