-1.031208038330078125e-02 -5.174211263656616211e-01 2.475548982620239258e-01
1.101493835449218750e-03 -5.457338094711303711e-01 2.474879622459411621e-01
1.271927356719970703e-02 -5.739465355873107910e-01 2.472841739654541016e-01
2.455234527587890625e-02 -6.020748615264892578e-01 2.469410300254821777e-01
3.622710704803466797e-02 -6.303237676620483398e-01 2.467134594917297363e-01
-2.495549321174621582e-01 -7.948341369628906250e-01 4.435685873031616211e-01
-2.492210268974304199e-01 -8.181095719337463379e-01 4.485827386379241943e-01
-2.419746518135070801e-01 -8.381814956665039062e-01 4.490086734294891357e-01
1.778602600097656250e-02 -7.671164274215698242e-01 2.876120209693908691e-01
9.423947334289550781e-02 -7.721270918846130371e-01 2.459029555320739746e-01
1.060006618499755859e-01 -8.005084395408630371e-01 2.456565499305725098e-01
1.183768510818481445e-01 -8.287544846534729004e-01 2.450355291366577148e-01
4.477238655090332031e-01 -7.808132767677307129e-01 4.982423782348632812e-02
4.275733232498168945e-01 -8.251221776008605957e-01 7.101386785507202148e-02
4.801729917526245117e-01 -8.540965914726257324e-01 4.802250862121582031e-02
4.963058233261108398e-01 -8.908889889717102051e-01 4.720675945281982422e-02
5.123118162155151367e-01 -9.277801513671875000e-01 4.648411273956298828e-02
5.286232233047485352e-01 -9.647129774093627930e-01 4.559963941574096680e-02
5.437690019607543945e-01 -1.001823425292968750e+00 4.540783166885375977e-02
5.585980415344238281e-01 -1.038975834846496582e+00 4.540288448333740234e-02
5.737568140029907227e-01 -1.076128125190734863e+00 4.521316289901733398e-02
5.905332565307617188e-01 -1.113299489021301270e+00 4.412150382995605469e-02
6.078944206237792969e-01 -1.150584101676940918e+00 4.272764921188354492e-02
6.245638132095336914e-01 -1.187964200973510742e+00 4.174262285232543945e-02
6.401351690292358398e-01 -1.225361585617065430e+00 4.137647151947021484e-02
6.563215255737304688e-01 -1.262852191925048828e+00 4.068678617477416992e-02
6.857777833938598633e-01 -1.301888227462768555e+00 3.290867805480957031e-02
7.377339601516723633e-01 -1.344565153121948242e+00 1.333975791931152344e-02
7.532851696014404297e-01 -1.383194923400878906e+00 1.326036453247070312e-02
7.688524723052978516e-01 -1.421842217445373535e+00 1.317590475082397461e-02
7.842472791671752930e-01 -1.460470318794250488e+00 1.318377256393432617e-02
7.992734909057617188e-01 -1.499026060104370117e+00 1.338189840316772461e-02
8.150125741958618164e-01 -1.537742853164672852e+00 1.321673393249511719e-02
8.302061557769775391e-01 -1.576340436935424805e+00 1.333051919937133789e-02
8.457214832305908203e-01 -1.615025997161865234e+00 1.328366994857788086e-02
8.615710735321044922e-01 -1.653820991516113281e+00 1.307410001754760742e-02
8.380955457687377930e-01 -1.680331945419311523e+00 3.214913606643676758e-02
8.278330564498901367e-01 -1.709802508354187012e+00 4.448366165161132812e-02
9.074854850769042969e-01 -1.769774079322814941e+00 1.326429843902587891e-02
9.231407642364501953e-01 -1.808559536933898926e+00 1.316130161285400391e-02
6.314352750778198242e-01 -1.729188680648803711e+00 1.588364839553833008e-01
6.031258106231689453e-01 -1.745071172714233398e+00 1.782444715499877930e-01
5.760326385498046875e-01 -1.760075330734252930e+00 1.967747211456298828e-01
5.503766536712646484e-01 -1.774390697479248047e+00 2.143459320068359375e-01
5.261684656143188477e-01 -1.788123011589050293e+00 2.309759259223937988e-01
5.027924776077270508e-01 -1.801083326339721680e+00 2.469670772552490234e-01
4.806759357452392578e-01 -1.813544392585754395e+00 2.621412873268127441e-01
-2.537723183631896973e-01 7.765475511550903320e-01 5.292934179306030273e-02
-2.446871399879455566e-01 7.291927337646484375e-01 5.869853496551513672e-02
-2.273731231689453125e-01 7.033176422119140625e-01 5.457603931427001953e-02
-2.137362957000732422e-01 6.679284572601318359e-01 5.485397577285766602e-02
-2.002475857734680176e-01 6.322253942489624023e-01 5.529278516769409180e-02
-1.867401003837585449e-01 5.966172218322753906e-01 5.569839477539062500e-02
-1.732194423675537109e-01 5.610846281051635742e-01 5.607843399047851562e-02
-1.594943404197692871e-01 5.260163545608520508e-01 5.622893571853637695e-02
-1.458498239517211914e-01 4.907966852188110352e-01 5.646252632141113281e-02
-1.320950984954833984e-01 4.558074474334716797e-01 5.657708644866943359e-02
-1.182292103767395020e-01 4.210257530212402344e-01 5.657744407653808594e-02
-1.041373014450073242e-01 3.866302967071533203e-01 5.635386705398559570e-02
-9.003305435180664062e-02 3.522126674652099609e-01 5.612826347351074219e-02
-2.516930103302001953e-01 3.107130527496337891e-02 2.267738580703735352e-01
-2.517027258872985840e-01 -1.424711942672729492e-02 2.374222874641418457e-01
-2.513079643249511719e-01 -5.757975578308105469e-02 2.473660707473754883e-01
-2.427023649215698242e-01 -8.778929710388183594e-02 2.493913173675537109e-01
-2.319200038909912109e-01 -1.147364377975463867e-01 2.493681311607360840e-01
-2.208595871925354004e-01 -1.413260102272033691e-01 2.490971684455871582e-01
-2.100410461425781250e-01 -1.682657003402709961e-01 2.490509748458862305e-01
-1.990871429443359375e-01 -1.950544118881225586e-01 2.488895654678344727e-01
-1.881285309791564941e-01 -2.218655943870544434e-01 2.487306594848632812e-01
-1.771825551986694336e-01 -2.487180233001708984e-01 2.485888600349426270e-01
-1.662501692771911621e-01 -2.756097614765167236e-01 2.484642863273620605e-01
-1.553470492362976074e-01 -3.025538325309753418e-01 2.483692765235900879e-01
-1.441782116889953613e-01 -3.292585313320159912e-01 2.480614781379699707e-01
-1.333575248718261719e-01 -3.563281297683715820e-01 2.480444908142089844e-01
-1.222813129425048828e-01 -3.831822574138641357e-01 2.478263974189758301e-01
-1.112646460533142090e-01 -4.101178050041198730e-01 2.476624846458435059e-01
-1.003249883651733398e-01 -4.371400475502014160e-01 2.475642561912536621e-01
-8.913588523864746094e-02 -4.639921188354492188e-01 2.472791671752929688e-01
-7.819974422454833984e-02 -4.910624027252197266e-01 2.471943497657775879e-01
-6.719744205474853516e-02 -5.181042551994323730e-01 2.470638751983642578e-01
-5.596089363098144531e-02 -5.450177192687988281e-01 2.467652559280395508e-01
-4.482924938201904297e-02 -5.720315575599670410e-01 2.465520501136779785e-01
-3.382325172424316406e-02 -5.991446971893310547e-01 2.464361190795898438e-01
-2.258706092834472656e-02 -6.261550784111022949e-01 2.461603879928588867e-01
-1.148712635040283203e-02 -6.532666087150573730e-01 2.459888458251953125e-01
-3.356933593750000000e-04 -6.803780794143676758e-01 2.457867860794067383e-01
-2.467576265335083008e-01 -8.169797658920288086e-01 4.230248332023620605e-01
-2.352027893066406250e-01 -8.355872631072998047e-01 4.205881655216217041e-01
3.296887874603271484e-02 -7.619205117225646973e-01 2.453179955482482910e-01
4.408216476440429688e-02 -7.891397476196289062e-01 2.451637983322143555e-01
5.523550510406494141e-02 -8.163677453994750977e-01 2.449879646301269531e-01
2.362065315246582031e-01 -7.979631423950195312e-01 1.340624094009399414e-01
3.737031221389770508e-01 -7.999375462532043457e-01 5.353188514709472656e-02
3.942760229110717773e-01 -8.337345719337463379e-01 4.935008287429809570e-02
4.091191291809082031e-01 -8.689550161361694336e-01 4.887783527374267578e-02
4.240661859512329102e-01 -9.042086601257324219e-01 4.835206270217895508e-02
4.389252662658691406e-01 -9.395270347595214844e-01 4.789340496063232422e-02
4.539092779159545898e-01 -9.748797416687011719e-01 4.736912250518798828e-02
4.692333936691284180e-01 -1.010258913040161133e+00 4.665082693099975586e-02
4.847081899642944336e-01 -1.045698404312133789e+00 4.585784673690795898e-02
4.990844726562500000e-01 -1.081239700317382812e+00 4.573595523834228516e-02
5.157239437103271484e-01 -1.116795778274536133e+00 4.428434371948242188e-02
5.317130088806152344e-01 -1.152462959289550781e+00 4.324185848236083984e-02
5.470523834228515625e-01 -1.188191652297973633e+00 4.259663820266723633e-02
5.626020431518554688e-01 -1.223994135856628418e+00 4.184478521347045898e-02
5.802751779556274414e-01 -1.260058879852294922e+00 3.990375995635986328e-02
6.435055732727050781e-01 -1.301489353179931641e+00 1.238667964935302734e-02
6.582844257354736328e-01 -1.338470697402954102e+00 1.236581802368164062e-02
6.730948686599731445e-01 -1.375466346740722656e+00 1.232957839965820312e-02
6.879533529281616211e-01 -1.412480711936950684e+00 1.226955652236938477e-02
7.028822898864746094e-01 -1.449521064758300781e+00 1.217412948608398438e-02
7.176792621612548828e-01 -1.486546993255615234e+00 1.215302944183349609e-02
7.323651313781738281e-01 -1.523555040359497070e+00 1.219320297241210938e-02
7.471630573272705078e-01 -1.560596466064453125e+00 1.217508316040039062e-02
7.620948553085327148e-01 -1.597683668136596680e+00 1.208895444869995117e-02
7.763295173645019531e-01 -1.634576678276062012e+00 1.236790418624877930e-02
7.911440134048461914e-01 -1.671640157699584961e+00 1.234531402587890625e-02
8.063410520553588867e-01 -1.708840250968933105e+00 1.212942600250244141e-02
8.211004734039306641e-01 -1.745908141136169434e+00 1.214033365249633789e-02
8.354401588439941406e-01 -1.782826662063598633e+00 1.236337423324584961e-02
8.502044677734375000e-01 -1.819901108741760254e+00 1.237291097640991211e-02
7.312614917755126953e-01 -1.802785515785217285e+00 7.841837406158447266e-02
5.704644918441772461e-01 -1.763472676277160645e+00 1.639056801795959473e-01
5.450136661529541016e-01 -1.777757406234741211e+00 1.822524666786193848e-01
5.205736160278320312e-01 -1.791268825531005859e+00 1.998223066329956055e-01
4.975708723068237305e-01 -1.804285883903503418e+00 2.164293527603149414e-01
4.753971099853515625e-01 -1.816607713699340820e+00 2.323848009109497070e-01
-2.892432212829589844e-01 6.982896327972412109e-01 5.175095796585083008e-02
-2.757596969604492188e-01 6.651700735092163086e-01 5.157357454299926758e-02
-2.623789310455322266e-01 6.317498683929443359e-01 5.153387784957885742e-02
-2.492817044258117676e-01 5.976220369338989258e-01 5.184388160705566406e-02
-2.361532449722290039e-01 5.636000633239746094e-01 5.210846662521362305e-02
-2.230827212333679199e-01 5.294740200042724609e-01 5.243444442749023438e-02
-2.102642655372619629e-01 4.948372840881347656e-01 5.304211378097534180e-02
-1.975356936454772949e-01 4.600876569747924805e-01 5.373328924179077148e-02
-1.849071383476257324e-01 4.252223968505859375e-01 5.451464653015136719e-02
-1.720921397209167480e-01 3.908109664916992188e-01 5.506896972656250000e-02
-1.588696241378784180e-01 3.572169542312622070e-01 5.516988039016723633e-02
-1.454248428344726562e-01 3.240196704864501953e-01 5.503576993942260742e-02
-1.319634318351745605e-01 2.908215522766113281e-01 5.489146709442138672e-02
-1.184929609298706055e-01 2.576081752777099609e-01 5.474531650543212891e-02
-1.050223708152770996e-01 2.243651151657104492e-01 5.460643768310546875e-02
-9.167528152465820312e-02 1.909066438674926758e-01 5.459696054458618164e-02
-2.512844204902648926e-01 -9.386432170867919922e-02 2.234416604042053223e-01
-2.511588931083679199e-01 -1.355161666870117188e-01 2.336257100105285645e-01
-2.510339617729187012e-01 -1.759579181671142578e-01 2.435120344161987305e-01
-2.457978129386901855e-01 -2.086980938911437988e-01 2.483406066894531250e-01
-2.353271245956420898e-01 -2.344675660133361816e-01 2.482153177261352539e-01
-2.248475551605224609e-01 -2.602488994598388672e-01 2.480874657630920410e-01
-2.143636941909790039e-01 -2.860476970672607422e-01 2.479612827301025391e-01
-2.038834691047668457e-01 -3.118720650672912598e-01 2.478436231613159180e-01
-1.932721734046936035e-01 -3.375829160213470459e-01 2.476169466972351074e-01
-1.828253865242004395e-01 -3.634864985942840576e-01 2.475394606590270996e-01
-1.721062064170837402e-01 -3.891524076461791992e-01 2.472350001335144043e-01
-1.614173054695129395e-01 -4.148847162723541260e-01 2.469656467437744141e-01
-1.510846018791198730e-01 -4.409520328044891357e-01 2.469990849494934082e-01
-1.404939293861389160e-01 -4.668169617652893066e-01 2.468231320381164551e-01
-1.297994852066040039e-01 -4.926283359527587891e-01 2.465698122978210449e-01
-1.191722750663757324e-01 -5.185203552246093750e-01 2.463779449462890625e-01
-1.086230874061584473e-01 -5.444911122322082520e-01 2.462537288665771484e-01
-9.816074371337890625e-02 -5.705363750457763672e-01 2.462015151977539062e-01
-8.727240562438964844e-02 -5.963374972343444824e-01 2.458257675170898438e-01
-7.665503025054931641e-02 -6.223341226577758789e-01 2.456657290458679199e-01
-6.614327430725097656e-02 -6.484082937240600586e-01 2.455901503562927246e-01
-5.556285381317138672e-02 -6.744621992111206055e-01 2.454670667648315430e-01
-4.473638534545898438e-02 -7.004211544990539551e-01 2.451685667037963867e-01
-2.466128468513488770e-01 -8.168339133262634277e-01 3.986692428588867188e-01
-2.346798181533813477e-01 -8.354464769363403320e-01 3.958765268325805664e-01
-1.278281211853027344e-02 -7.786853909492492676e-01 2.446933388710021973e-01
-1.876711845397949219e-03 -8.047301173210144043e-01 2.443666458129882812e-01
9.884476661682128906e-03 -8.305547237396240234e-01 2.434570193290710449e-01
3.038346767425537109e-01 -7.808340787887573242e-01 4.945778846740722656e-02
3.109312057495117188e-01 -8.162465095520019531e-01 5.379450321197509766e-02
3.312306404113769531e-01 -8.485280275344848633e-01 4.919642210006713867e-02
3.449144363403320312e-01 -8.824054002761840820e-01 4.908198118209838867e-02
3.587325811386108398e-01 -9.162791371345520020e-01 4.888361692428588867e-02
3.733031749725341797e-01 -9.500812888145446777e-01 4.820227622985839844e-02
3.874205350875854492e-01 -9.839919805526733398e-01 4.782801866531372070e-02
4.019049406051635742e-01 -1.017912983894348145e+00 4.722929000854492188e-02
4.163622856140136719e-01 -1.051890611648559570e+00 4.666131734848022461e-02
4.312160015106201172e-01 -1.085911035537719727e+00 4.585880041122436523e-02
4.468899965286254883e-01 -1.120002627372741699e+00 4.456657171249389648e-02
4.623651504516601562e-01 -1.154196977615356445e+00 4.342263936996459961e-02
4.780647754669189453e-01 -1.188497424125671387e+00 4.216605424880981445e-02
4.931707382202148438e-01 -1.222858428955078125e+00 4.129141569137573242e-02
5.114486217498779297e-01 -1.257592678070068359e+00 3.854757547378540039e-02
5.710072517395019531e-01 -1.297369718551635742e+00 1.152211427688598633e-02
5.852301120758056641e-01 -1.332866668701171875e+00 1.147341728210449219e-02
5.995125770568847656e-01 -1.368383407592773438e+00 1.139271259307861328e-02
6.136620044708251953e-01 -1.403888940811157227e+00 1.139158010482788086e-02
6.279013156890869141e-01 -1.439419507980346680e+00 1.134091615676879883e-02
6.420335769653320312e-01 -1.474936723709106445e+00 1.135313510894775391e-02
6.562857627868652344e-01 -1.510488748550415039e+00 1.129984855651855469e-02
6.706743240356445312e-01 -1.546087026596069336e+00 1.117366552352905273e-02
6.847960948944091797e-01 -1.581625461578369141e+00 1.119774580001831055e-02
6.988750696182250977e-01 -1.617155790328979492e+00 1.124614477157592773e-02
7.131251096725463867e-01 -1.652744174003601074e+00 1.120311021804809570e-02
7.275674343109130859e-01 -1.688406825065612793e+00 1.105958223342895508e-02
7.413944005966186523e-01 -1.723866224288940430e+00 1.124638319015502930e-02
7.552317380905151367e-01 -1.759323358535766602e+00 1.142621040344238281e-02
7.695007324218750000e-01 -1.794943690299987793e+00 1.137930154800415039e-02
7.834002971649169922e-01 -1.830422401428222656e+00 1.152598857879638672e-02
7.977578639984130859e-01 -1.866092801094055176e+00 1.143670082092285156e-02
5.411912202835083008e-01 -1.781816959381103516e+00 1.493093371391296387e-01
5.153365135192871094e-01 -1.794586777687072754e+00 1.684414148330688477e-01
4.923110008239746094e-01 -1.807479977607727051e+00 1.858545541763305664e-01
4.700977802276611328e-01 -1.819669127464294434e+00 2.025920152664184570e-01
-3.211501240730285645e-01 6.283605098724365234e-01 4.949849843978881836e-02
-3.081720471382141113e-01 5.964437723159790039e-01 4.932564496994018555e-02
-2.950485944747924805e-01 5.648580789566040039e-01 4.897314310073852539e-02
-2.821856141090393066e-01 5.325700044631958008e-01 4.897058010101318359e-02
-2.698720693588256836e-01 4.989746809005737305e-01 4.966145753860473633e-02
-2.577209472656250000e-01 4.650975465774536133e-01 5.053025484085083008e-02
-2.453820705413818359e-01 4.317393302917480469e-01 5.114340782165527344e-02
-2.334064245223999023e-01 3.976918458938598633e-01 5.216991901397705078e-02
-2.207726836204528809e-01 3.650984764099121094e-01 5.239468812942504883e-02
-2.080149650573730469e-01 3.327640295028686523e-01 5.247235298156738281e-02
-1.954379677772521973e-01 3.000918626785278320e-01 5.275428295135498047e-02
-1.830628514289855957e-01 2.670829296112060547e-01 5.325382947921752930e-02
-1.702648401260375977e-01 2.348545193672180176e-01 5.327808856964111328e-02
-1.573475003242492676e-01 2.028157114982604980e-01 5.317604541778564453e-02
-1.443086266517639160e-01 1.709468364715576172e-01 5.295139551162719727e-02
-1.314957141876220703e-01 1.386963129043579102e-01 5.297172069549560547e-02
-1.189358830451965332e-01 1.060679554939270020e-01 5.325347185134887695e-02
-1.066540479660034180e-01 7.307273149490356445e-02 5.380994081497192383e-02
-9.443068504333496094e-02 4.005330801010131836e-02 5.441057682037353516e-02
-2.090807557106018066e-01 -1.562538146972656250e-01 1.793489456176757812e-01
-2.504692673683166504e-01 -2.482805550098419189e-01 2.299117445945739746e-01
-2.503332495689392090e-01 -2.857644259929656982e-01 2.394959330558776855e-01
-2.484539151191711426e-01 -3.202469646930694580e-01 2.471761703491210938e-01
-2.386496663093566895e-01 -3.453763723373413086e-01 2.473082542419433594e-01
-2.282811999320983887e-01 -3.699187338352203369e-01 2.469232082366943359e-01
-2.181996703147888184e-01 -3.947895765304565430e-01 2.468089461326599121e-01
-2.078350782394409180e-01 -4.194147288799285889e-01 2.464478611946105957e-01
-1.977877616882324219e-01 -4.443653225898742676e-01 2.463763356208801270e-01
-1.877737641334533691e-01 -4.693578481674194336e-01 2.463371753692626953e-01
-1.774822473526000977e-01 -4.941384792327880859e-01 2.460635900497436523e-01
-1.673942804336547852e-01 -5.191069841384887695e-01 2.459703087806701660e-01
-1.571963429450988770e-01 -5.440120100975036621e-01 2.457894682884216309e-01
-1.470553278923034668e-01 -5.689792037010192871e-01 2.456614971160888672e-01
-1.366432309150695801e-01 -5.937913060188293457e-01 2.453178167343139648e-01
-1.266391277313232422e-01 -6.188873648643493652e-01 2.453117966651916504e-01
-1.163705587387084961e-01 -6.438406705856323242e-01 2.450975775718688965e-01
-1.060049533843994141e-01 -6.687682271003723145e-01 2.448139190673828125e-01
-9.590661525726318359e-02 -6.938593387603759766e-01 2.447456121444702148e-01
-8.553814888000488281e-02 -7.188383936882019043e-01 2.444733381271362305e-01
-2.464786171913146973e-01 -8.166914582252502441e-01 3.739987611770629883e-01
-2.342719435691833496e-01 -8.353517055511474609e-01 3.709049224853515625e-01
-5.482757091522216797e-02 -7.940930724143981934e-01 2.439941763877868652e-01
-4.447925090789794922e-02 -8.191799521446228027e-01 2.437628507614135742e-01
1.183683872222900391e-01 -7.989364862442016602e-01 1.330280303955078125e-01
2.446610927581787109e-01 -7.977088689804077148e-01 5.088454484939575195e-02
2.590708732604980469e-01 -8.298520445823669434e-01 4.984247684478759766e-02
2.738434076309204102e-01 -8.620117902755737305e-01 4.856967926025390625e-02
2.872117757797241211e-01 -8.945344686508178711e-01 4.830020666122436523e-02
3.003473281860351562e-01 -9.271211624145507812e-01 4.819816350936889648e-02
3.136518001556396484e-01 -9.597016572952270508e-01 4.798507690429687500e-02
3.273358345031738281e-01 -9.922682046890258789e-01 4.752248525619506836e-02
3.408095836639404297e-01 -1.024892687797546387e+00 4.721111059188842773e-02
3.542846441268920898e-01 -1.057547807693481445e+00 4.690670967102050781e-02
3.677629232406616211e-01 -1.090232491493225098e+00 4.660791158676147461e-02
3.826924562454223633e-01 -1.122951030731201172e+00 4.537755250930786133e-02
3.976601362228393555e-01 -1.155769109725952148e+00 4.414814710617065430e-02
4.124670028686523438e-01 -1.188676357269287109e+00 4.304599761962890625e-02
4.275363683700561523e-01 -1.221690416336059570e+00 4.180127382278442383e-02
4.451489448547363281e-01 -1.255048990249633789e+00 3.899770975112915039e-02
5.039778947830200195e-01 -1.293551683425903320e+00 1.081687211990356445e-02
5.178523063659667969e-01 -1.327699065208435059e+00 1.063889265060424805e-02
5.311890840530395508e-01 -1.361777663230895996e+00 1.079136133193969727e-02
5.450359582901000977e-01 -1.395946145057678223e+00 1.063674688339233398e-02
5.587884187698364258e-01 -1.430112123489379883e+00 1.054245233535766602e-02
5.724586248397827148e-01 -1.464272499084472656e+00 1.050001382827758789e-02
5.862678289413452148e-01 -1.498475790023803711e+00 1.037871837615966797e-02
5.998159646987915039e-01 -1.532624244689941406e+00 1.041233539581298828e-02
6.135305166244506836e-01 -1.566823840141296387e+00 1.035141944885253906e-02
6.272226572036743164e-01 -1.601026773452758789e+00 1.030582189559936523e-02
6.408973932266235352e-01 -1.635233044624328613e+00 1.027232408523559570e-02
6.541686058044433594e-01 -1.669309377670288086e+00 1.046675443649291992e-02
6.678613424301147461e-01 -1.703530788421630859e+00 1.042550802230834961e-02
6.815814971923828125e-01 -1.737771034240722656e+00 1.037144660949707031e-02
6.951336860656738281e-01 -1.771954178810119629e+00 1.041138172149658203e-02
7.083327770233154297e-01 -1.805994629859924316e+00 1.064330339431762695e-02
7.222033739089965820e-01 -1.840314745903015137e+00 1.051235198974609375e-02
7.357399463653564453e-01 -1.874499559402465820e+00 1.056283712387084961e-02
7.489629983901977539e-01 -1.908541798591613770e+00 1.077967882156372070e-02
4.870159626007080078e-01 -1.810666680335998535e+00 1.552429795265197754e-01
4.647840261459350586e-01 -1.822731375694274902e+00 1.727605462074279785e-01
-3.505071401596069336e-01 5.641846656799316406e-01 4.700386524200439453e-02
-3.381225466728210449e-01 5.330241918563842773e-01 4.701733589172363281e-02
-3.261536359786987305e-01 5.007858276367187500e-01 4.760348796844482422e-02
-3.143199086189270020e-01 4.682853221893310547e-01 4.835194349288940430e-02
-3.024653196334838867e-01 4.359276294708251953e-01 4.904776811599731445e-02
-2.905032634735107422e-01 4.039001464843750000e-01 4.958164691925048828e-02
-2.785180807113647461e-01 3.719846010208129883e-01 5.006963014602661133e-02
-2.666014432907104492e-01 3.399777412414550781e-01 5.062872171401977539e-02
-2.545732259750366211e-01 3.082598447799682617e-01 5.103421211242675781e-02
-2.425271868705749512e-01 2.766181230545043945e-01 5.140703916549682617e-02
-2.304643988609313965e-01 2.450445294380187988e-01 5.175012350082397461e-02
-2.180792093276977539e-01 2.140852808952331543e-01 5.170881748199462891e-02
-2.056701183319091797e-01 1.831519603729248047e-01 5.164438486099243164e-02
-1.932410001754760742e-01 1.522347331047058105e-01 5.156201124191284180e-02
-1.806839108467102051e-01 1.215023398399353027e-01 5.134302377700805664e-02
-1.686860322952270508e-01 8.987730741500854492e-02 5.174392461776733398e-02
-1.570589542388916016e-01 5.774319171905517578e-02 5.253368616104125977e-02
-1.454820632934570312e-01 2.561783790588378906e-02 5.335509777069091797e-02
-1.335918307304382324e-01 -6.001532077789306641e-03 5.382746458053588867e-02
-1.209919452667236328e-01 -3.665953874588012695e-02 5.355942249298095703e-02
-1.084124445915222168e-01 -6.738048791885375977e-02 5.332213640213012695e-02
-9.560227394104003906e-02 -9.786206483840942383e-02 5.286389589309692383e-02
-1.677111983299255371e-01 -2.246366143226623535e-01 1.359587907791137695e-01
-2.498552799224853516e-01 -3.536861836910247803e-01 2.264706492424011230e-01
-2.495537996292114258e-01 -3.883494734764099121e-01 2.356206178665161133e-01
-2.492302656173706055e-01 -4.220764935016632080e-01 2.445029616355895996e-01
-2.412012219429016113e-01 -4.477008283138275146e-01 2.459750771522521973e-01
-2.314482331275939941e-01 -4.716488718986511230e-01 2.458261251449584961e-01
-2.217085361480712891e-01 -4.956287741661071777e-01 2.456948161125183105e-01
-2.118346691131591797e-01 -5.195194482803344727e-01 2.454484105110168457e-01
-2.019869089126586914e-01 -5.434592962265014648e-01 2.452330589294433594e-01
-1.923323869705200195e-01 -5.675644278526306152e-01 2.451932430267333984e-01
-1.823921799659729004e-01 -5.914846658706665039e-01 2.449098825454711914e-01
-1.726639866828918457e-01 -6.155725121498107910e-01 2.448155283927917480e-01
-1.626476645469665527e-01 -6.395007371902465820e-01 2.444826960563659668e-01
-1.528583765029907227e-01 -6.635926961898803711e-01 2.443479895591735840e-01
-1.431338787078857422e-01 -6.877364516258239746e-01 2.442712187767028809e-01
-1.331229805946350098e-01 -7.117508649826049805e-01 2.439653277397155762e-01
-1.231832504272460938e-01 -7.358297109603881836e-01 2.437251210212707520e-01
-2.463555335998535156e-01 -8.165526390075683594e-01 3.490086793899536133e-01
-2.336999773979187012e-01 -8.351935148239135742e-01 3.454598784446716309e-01
-9.380567073822021484e-02 -8.083765506744384766e-01 2.433875799179077148e-01
-8.248627185821533203e-02 -8.320872783660888672e-01 2.421126961708068848e-01
1.830681562423706055e-01 -7.804656028747558594e-01 4.816049337387084961e-02
1.898759603500366211e-01 -8.133267760276794434e-01 5.241346359252929688e-02
2.083212137222290039e-01 -8.431040644645690918e-01 4.794508218765258789e-02
2.212139368057250977e-01 -8.743906021118164062e-01 4.764807224273681641e-02
2.336999177932739258e-01 -9.057793617248535156e-01 4.765439033508300781e-02
2.463726997375488281e-01 -9.371459484100341797e-01 4.752808809280395508e-02
2.592405080795288086e-01 -9.685043096542358398e-01 4.726737737655639648e-02
2.721199989318847656e-01 -9.998875856399536133e-01 4.700541496276855469e-02
2.852113246917724609e-01 -1.031281709671020508e+00 4.660284519195556641e-02
2.983306646347045898e-01 -1.062710523605346680e+00 4.619055986404418945e-02
3.112825155258178711e-01 -1.094178795814514160e+00 4.590255022048950195e-02
3.246812820434570312e-01 -1.125676512718200684e+00 4.531949758529663086e-02
3.381361961364746094e-01 -1.157223701477050781e+00 4.471176862716674805e-02
3.514555692672729492e-01 -1.188812971115112305e+00 4.420721530914306641e-02
3.652559518814086914e-01 -1.220480799674987793e+00 4.339784383773803711e-02
3.811893463134765625e-01 -1.252424240112304688e+00 4.121679067611694336e-02
4.421243667602539062e-01 -1.290038943290710449e+00 1.005923748016357422e-02
4.554374217987060547e-01 -1.322908163070678711e+00 9.904503822326660156e-03
4.684487581253051758e-01 -1.355743646621704102e+00 9.945034980773925781e-03
4.817800521850585938e-01 -1.388642311096191406e+00 9.785830974578857422e-03
4.950385093688964844e-01 -1.421542167663574219e+00 9.676277637481689453e-03
5.078279972076416016e-01 -1.454347610473632812e+00 9.859144687652587891e-03
5.209769010543823242e-01 -1.487236380577087402e+00 9.820818901062011719e-03
5.344990491867065430e-01 -1.520233750343322754e+00 9.558796882629394531e-03
5.473883152008056641e-01 -1.553070902824401855e+00 9.682655334472656250e-03
5.604724884033203125e-01 -1.585965633392333984e+00 9.689867496490478516e-03
5.735623836517333984e-01 -1.618867397308349609e+00 9.695112705230712891e-03
5.866656303405761719e-01 -1.651778817176818848e+00 9.693861007690429688e-03
5.998009443283081055e-01 -1.684707403182983398e+00 9.675562381744384766e-03
6.127737760543823242e-01 -1.717580556869506836e+00 9.752452373504638672e-03
6.259953975677490234e-01 -1.750553607940673828e+00 9.687602519989013672e-03
6.388874053955078125e-01 -1.783398628234863281e+00 9.811639785766601562e-03
6.522469520568847656e-01 -1.816444158554077148e+00 9.672880172729492188e-03
6.652916669845581055e-01 -1.849361419677734375e+00 9.712874889373779297e-03
6.776376962661743164e-01 -1.881955027580261230e+00 1.013928651809692383e-02
6.908851861953735352e-01 -1.914964437484741211e+00 1.006668806076049805e-02
5.822448730468750000e-01 -1.887113928794860840e+00 7.619899511337280273e-02
-3.787118196487426758e-01 5.020093917846679688e-01 4.593479633331298828e-02
-3.669683337211608887e-01 4.714004993438720703e-01 4.624378681182861328e-02
-3.554107546806335449e-01 4.403414726257324219e-01 4.681128263473510742e-02
-3.438997864723205566e-01 4.092339277267456055e-01 4.742550849914550781e-02
-3.322755694389343262e-01 3.784703016281127930e-01 4.786258935928344727e-02
-3.207864761352539062e-01 3.474427461624145508e-01 4.846978187561035156e-02
-3.091828823089599609e-01 3.167381286621093750e-01 4.890483617782592773e-02
-2.979121208190917969e-01 2.853693962097167969e-01 4.976284503936767578e-02
-2.865411043167114258e-01 2.543044090270996094e-01 5.046421289443969727e-02
-2.745811939239501953e-01 2.244760990142822266e-01 5.039989948272705078e-02
-2.621859908103942871e-01 1.954542398452758789e-01 4.979997873306274414e-02
-2.499312758445739746e-01 1.660954356193542480e-01 4.939454793930053711e-02
-2.380474805831909180e-01 1.360318064689636230e-01 4.945045709609985352e-02
-2.259267568588256836e-01 1.063626408576965332e-01 4.922747611999511719e-02
-2.144383192062377930e-01 7.564157247543334961e-02 4.974871873855590820e-02
-2.032997608184814453e-01 4.442989826202392578e-02 5.065602064132690430e-02
-1.921952366828918457e-01 1.325923204421997070e-02 5.157589912414550781e-02
-1.810129880905151367e-01 -1.770955324172973633e-02 5.238384008407592773e-02
-1.696313619613647461e-01 -4.832905530929565430e-02 5.295211076736450195e-02
-1.576702594757080078e-01 -7.814222574234008789e-02 5.288273096084594727e-02
-1.453462839126586914e-01 -1.075185537338256836e-01 5.243319272994995117e-02
-1.331639289855957031e-01 -1.371179819107055664e-01 5.214685201644897461e-02
-1.210111379623413086e-01 -1.667881011962890625e-01 5.190134048461914062e-02
-1.088961362838745117e-01 -1.965316534042358398e-01 5.170321464538574219e-02
-9.669041633605957031e-02 -2.262085080146789551e-01 5.142217874526977539e-02
-1.261708140373229980e-01 -2.971583306789398193e-01 9.229940176010131836e-02
-2.490523457527160645e-01 -4.521788358688354492e-01 2.230263352394104004e-01
-2.488538622856140137e-01 -4.845754504203796387e-01 2.320163846015930176e-01
-2.485856413841247559e-01 -5.160795450210571289e-01 2.407054901123046875e-01
-2.437586784362792969e-01 -5.431082248687744141e-01 2.449043393135070801e-01
-2.342727184295654297e-01 -5.661970973014831543e-01 2.446929216384887695e-01
-2.248039841651916504e-01 -5.893230438232421875e-01 2.445040941238403320e-01
-2.153555154800415039e-01 -6.124849915504455566e-01 2.443397641181945801e-01
-2.059387564659118652e-01 -6.356871724128723145e-01 2.442092895507812500e-01
-1.965552568435668945e-01 -6.589261293411254883e-01 2.441126704216003418e-01
-1.870475411415100098e-01 -6.821081638336181641e-01 2.439120411872863770e-01
-1.775813102722167969e-01 -7.053344249725341797e-01 2.437532544136047363e-01
-1.679852008819580078e-01 -7.285147905349731445e-01 2.434895634651184082e-01
-1.584432125091552734e-01 -7.517470121383666992e-01 2.432788014411926270e-01
-2.463322877883911133e-01 -8.164550662040710449e-01 3.237672448158264160e-01
-2.333342432975769043e-01 -8.351171612739562988e-01 3.198205232620239258e-01
-1.297718882560729980e-01 -8.215578794479370117e-01 2.426466941833496094e-01
1.711452007293701172e-02 -7.999188303947448730e-01 1.325095891952514648e-01
1.351088285446166992e-01 -7.954454421997070312e-01 4.767435789108276367e-02
1.420276165008544922e-01 -8.270211219787597656e-01 5.167311429977416992e-02
1.594899892807006836e-01 -8.558140397071838379e-01 4.741960763931274414e-02
1.716915369033813477e-01 -8.860196471214294434e-01 4.729056358337402344e-02
1.840972900390625000e-01 -9.162046909332275391e-01 4.701101779937744141e-02
1.963311433792114258e-01 -9.464420080184936523e-01 4.686796665191650391e-02
2.083936929702758789e-01 -9.767166376113891602e-01 4.685676097869873047e-02
2.208772897720336914e-01 -1.006957888603210449e+00 4.653787612915039062e-02
2.332063913345336914e-01 -1.037238478660583496e+00 4.633957147598266602e-02
2.463760375976562500e-01 -1.067503094673156738e+00 4.554134607315063477e-02
2.590085268020629883e-01 -1.097838878631591797e+00 4.514378309249877930e-02
2.717124223709106445e-01 -1.128208637237548828e+00 4.470509290695190430e-02
2.844917774200439453e-01 -1.158616662025451660e+00 4.422378540039062500e-02
2.971575260162353516e-01 -1.189056873321533203e+00 4.383200407028198242e-02
3.099243640899658203e-01 -1.219537019729614258e+00 4.337990283966064453e-02
3.231973648071289062e-01 -1.250105142593383789e+00 4.259407520294189453e-02
3.847416639328002930e-01 -1.286781787872314453e+00 9.339690208435058594e-03
3.974963426589965820e-01 -1.318459510803222656e+00 9.233713150024414062e-03
4.101735353469848633e-01 -1.350136518478393555e+00 9.182393550872802734e-03
4.229900836944580078e-01 -1.381848812103271484e+00 9.042322635650634766e-03
4.357453584671020508e-01 -1.413562536239624023e+00 8.946001529693603516e-03
4.480617046356201172e-01 -1.445185661315917969e+00 9.135127067565917969e-03
4.609506130218505859e-01 -1.476946830749511719e+00 8.957684040069580078e-03
4.734172821044921875e-01 -1.508609294891357422e+00 9.051322937011718750e-03
4.860821962356567383e-01 -1.540328979492187500e+00 9.020805358886718750e-03
4.987553358078002930e-01 -1.572058320045471191e+00 8.987069129943847656e-03
5.114442110061645508e-01 -1.603800058364868164e+00 8.945643901824951172e-03
5.239644050598144531e-01 -1.635490417480468750e+00 9.009420871734619141e-03
5.365258455276489258e-01 -1.667197227478027344e+00 9.048402309417724609e-03
5.491436719894409180e-01 -1.698928356170654297e+00 9.054481983184814453e-03
5.618201494216918945e-01 -1.730687737464904785e+00 9.026825428009033203e-03
5.745735168457031250e-01 -1.762485980987548828e+00 8.955717086791992188e-03
5.870138406753540039e-01 -1.794156193733215332e+00 9.070336818695068359e-03
5.995503664016723633e-01 -1.825868368148803711e+00 9.128510951995849609e-03
6.121917963027954102e-01 -1.857631325721740723e+00 9.126842021942138672e-03
6.245507001876831055e-01 -1.889261603355407715e+00 9.287714958190917969e-03
6.370360851287841797e-01 -1.920951128005981445e+00 9.375870227813720703e-03
-4.061356186866760254e-01 4.408375024795532227e-01 4.673457145690917969e-02
-3.946443796157836914e-01 4.117969274520874023e-01 4.677885770797729492e-02
-3.831701874732971191e-01 3.827071189880371094e-01 4.685020446777343750e-02
-3.719538450241088867e-01 3.529677391052246094e-01 4.730308055877685547e-02
-3.611855506896972656e-01 3.221935033798217773e-01 4.839128255844116211e-02
-3.502360582351684570e-01 2.919712066650390625e-01 4.918342828750610352e-02
-3.393524289131164551e-01 2.616922855377197266e-01 5.004084110260009766e-02
-3.282733559608459473e-01 2.319302558898925781e-01 5.060184001922607422e-02
-3.161592483520507812e-01 2.043658494949340820e-01 4.975175857543945312e-02
-3.042440414428710938e-01 1.762952208518981934e-01 4.919755458831787109e-02
-2.922629117965698242e-01 1.482760906219482422e-01 4.857957363128662109e-02
-2.803142666816711426e-01 1.201168298721313477e-01 4.802668094635009766e-02
-2.683062553405761719e-01 9.199011325836181641e-02 4.742038249969482422e-02
-2.574014067649841309e-01 6.192427873611450195e-02 4.819947481155395508e-02
-2.465056777000427246e-01 3.192096948623657227e-02 4.896688461303710938e-02
-2.357338070869445801e-01 1.800179481506347656e-03 4.986047744750976562e-02
-2.247586846351623535e-01 -2.793025970458984375e-02 5.048894882202148438e-02
-2.138042449951171875e-01 -5.763220787048339844e-02 5.112439393997192383e-02
-2.022762894630432129e-01 -8.649158477783203125e-02 5.108833312988281250e-02
-1.907526850700378418e-01 -1.153681278228759766e-01 5.106043815612792969e-02
-1.794897913932800293e-01 -1.445818543434143066e-01 5.132436752319335938e-02
-1.680052280426025391e-01 -1.735113859176635742e-01 5.134099721908569336e-02
-1.564167737960815430e-01 -2.023277878761291504e-01 5.124747753143310547e-02
-1.444560289382934570e-01 -2.307537198066711426e-01 5.076414346694946289e-02
-1.325218081474304199e-01 -2.592604458332061768e-01 5.032408237457275391e-02
-1.207634806632995605e-01 -2.879905402660369873e-01 5.007970333099365234e-02
-1.087696552276611328e-01 -3.165275156497955322e-01 4.960447549819946289e-02
-9.697389602661132812e-02 -3.452930748462677002e-01 4.934281110763549805e-02
-8.554363250732421875e-02 -3.744014203548431396e-01 4.945218563079833984e-02
-2.482338547706604004e-01 -5.446107387542724609e-01 2.197289466857910156e-01
-2.479993700981140137e-01 -5.748326182365417480e-01 2.284401059150695801e-01
-2.479449510574340820e-01 -6.044350266456604004e-01 2.371022105216979980e-01
-2.458353638648986816e-01 -6.318932771682739258e-01 2.436150312423706055e-01
-2.370206713676452637e-01 -6.544804573059082031e-01 2.437403798103332520e-01
-2.277402281761169434e-01 -6.767797470092773438e-01 2.434368133544921875e-01
-2.186443805694580078e-01 -6.992139220237731934e-01 2.433093786239624023e-01
-2.094052433967590332e-01 -7.215872406959533691e-01 2.430581450462341309e-01
-2.003661394119262695e-01 -7.440847158432006836e-01 2.429912686347961426e-01
-1.911910176277160645e-01 -7.665296792984008789e-01 2.428084015846252441e-01
-2.460538744926452637e-01 -8.162477612495422363e-01 2.979717850685119629e-01
-2.327215671539306641e-01 -8.349449634552001953e-01 2.936147451400756836e-01
-1.615454554557800293e-01 -8.332155942916870117e-01 2.405019998550415039e-01
7.960128784179687500e-02 -7.799860835075378418e-01 4.662901163101196289e-02
8.574819564819335938e-02 -8.107823729515075684e-01 5.113935470581054688e-02
1.031150817871093750e-01 -8.382797241210937500e-01 4.638743400573730469e-02
1.148198843002319336e-01 -8.674606680870056152e-01 4.631519317626953125e-02
1.263688802719116211e-01 -8.966845273971557617e-01 4.637062549591064453e-02
1.381392478942871094e-01 -9.258708953857421875e-01 4.625147581100463867e-02
1.497616767883300781e-01 -9.550931453704833984e-01 4.625213146209716797e-02
1.616206169128417969e-01 -9.842924475669860840e-01 4.607135057449340820e-02
1.735321283340454102e-01 -1.013504981994628906e+00 4.585558176040649414e-02
1.851207017898559570e-01 -1.042759180068969727e+00 4.589086771011352539e-02
1.969718933105468750e-01 -1.072005748748779297e+00 4.572951793670654297e-02
2.094870805740356445e-01 -1.101258635520935059e+00 4.507946968078613281e-02
2.215038537979125977e-01 -1.130555391311645508e+00 4.481071233749389648e-02
2.338151931762695312e-01 -1.159885525703430176e+00 4.433399438858032227e-02
2.460380792617797852e-01 -1.189247012138366699e+00 4.393184185028076172e-02
2.581769227981567383e-01 -1.218632936477661133e+00 4.359912872314453125e-02
2.706415653228759766e-01 -1.248079776763916016e+00 4.304343461990356445e-02
2.872171401977539062e-01 -1.278094410896301270e+00 3.961634635925292969e-02
3.435503244400024414e-01 -1.314315438270568848e+00 8.630037307739257812e-03
3.558902740478515625e-01 -1.344909906387329102e+00 8.503854274749755859e-03
3.681843280792236328e-01 -1.375508546829223633e+00 8.412897586822509766e-03
3.800436258316040039e-01 -1.406024217605590820e+00 8.618772029876708984e-03
3.922713994979858398e-01 -1.436619281768798828e+00 8.575618267059326172e-03
4.048888683319091797e-01 -1.467321395874023438e+00 8.276045322418212891e-03
4.171062707901000977e-01 -1.497936129570007324e+00 8.246302604675292969e-03
4.289367198944091797e-01 -1.528443098068237305e+00 8.471012115478515625e-03
4.411842823028564453e-01 -1.559072732925415039e+00 8.423507213592529297e-03
4.534631967544555664e-01 -1.589720606803894043e+00 8.358180522918701172e-03
4.655919075012207031e-01 -1.620323896408081055e+00 8.390724658966064453e-03
4.779655933380126953e-01 -1.651020884513854980e+00 8.269786834716796875e-03
4.900112152099609375e-01 -1.681602001190185547e+00 8.357107639312744141e-03
5.021309852600097656e-01 -1.712212562561035156e+00 8.398413658142089844e-03
5.143343210220336914e-01 -1.742861032485961914e+00 8.389115333557128906e-03
5.264403820037841797e-01 -1.773471474647521973e+00 8.440554141998291016e-03
5.386470556259155273e-01 -1.804129719734191895e+00 8.431613445281982422e-03
5.505751371383666992e-01 -1.834660649299621582e+00 8.591175079345703125e-03
5.628204345703125000e-01 -1.865343093872070312e+00 8.560836315155029297e-03
5.748082399368286133e-01 -1.895900964736938477e+00 8.684098720550537109e-03
-4.315723180770874023e-01 3.841458559036254883e-01 4.735326766967773438e-02
-4.204369187355041504e-01 3.562318086624145508e-01 4.732531309127807617e-02
-4.093118906021118164e-01 3.282765150070190430e-01 4.731792211532592773e-02
-3.986674547195434570e-01 2.990895509719848633e-01 4.805797338485717773e-02
-3.881510496139526367e-01 2.696746587753295898e-01 4.896634817123413086e-02
-3.776943087577819824e-01 2.402243614196777344e-01 4.993158578872680664e-02
-3.662795424461364746e-01 2.130446434020996094e-01 4.946351051330566406e-02
-3.547043800354003906e-01 1.861471533775329590e-01 4.878538846969604492e-02
-3.428652286529541016e-01 1.597105264663696289e-01 4.776287078857421875e-02
-3.311209082603454590e-01 1.329565048217773438e-01 4.691052436828613281e-02
-3.194832205772399902e-01 1.058918237686157227e-01 4.623550176620483398e-02
-3.082647919654846191e-01 7.796901464462280273e-02 4.614621400833129883e-02
-2.977105379104614258e-01 4.885125160217285156e-02 4.693448543548583984e-02
-2.870486974716186523e-01 1.999402046203613281e-02 4.756009578704833984e-02
-2.764886021614074707e-01 -8.970320224761962891e-03 4.829692840576171875e-02
-2.657153010368347168e-01 -3.753143548965454102e-02 4.874598979949951172e-02
-2.551607489585876465e-01 -6.638175249099731445e-02 4.945212602615356445e-02
-2.439330816268920898e-01 -9.420019388198852539e-02 4.932373762130737305e-02
-2.330433130264282227e-01 -1.225039958953857422e-01 4.960429668426513672e-02
-2.220410108566284180e-01 -1.506392955780029297e-01 4.974657297134399414e-02
-2.110440731048583984e-01 -1.787746548652648926e-01 4.989302158355712891e-02
-1.998140811920166016e-01 -2.066221833229064941e-01 4.977172613143920898e-02
-1.885964274406433105e-01 -2.345024347305297852e-01 4.967004060745239258e-02
-1.772657632827758789e-01 -2.622748613357543945e-01 4.944825172424316406e-02
-1.659585833549499512e-01 -2.900991737842559814e-01 4.926043748855590820e-02
-1.546824574470520020e-01 -3.179783225059509277e-01 4.911333322525024414e-02
-1.431682705879211426e-01 -3.456509411334991455e-01 4.871958494186401367e-02
-1.322675347328186035e-01 -3.739191889762878418e-01 4.898083209991455078e-02
-1.212919354438781738e-01 -4.021068513393402100e-01 4.915970563888549805e-02
-1.103936433792114258e-01 -4.303484857082366943e-01 4.941463470458984375e-02
-9.912765026092529297e-02 -4.582915604114532471e-01 4.929494857788085938e-02
-8.825182914733886719e-02 -4.865349531173706055e-01 4.956769943237304688e-02
-2.476000785827636719e-01 -6.316798329353332520e-01 2.167600393295288086e-01
-2.473436594009399414e-01 -6.599352955818176270e-01 2.252162098884582520e-01
-2.470592260360717773e-01 -6.874956488609313965e-01 2.334378957748413086e-01
-2.467298507690429688e-01 -7.143791317939758301e-01 2.414177060127258301e-01
-2.393407821655273438e-01 -7.368804216384887695e-01 2.426176071166992188e-01
-2.304944396018981934e-01 -7.585701346397399902e-01 2.424464821815490723e-01
-2.216561436653137207e-01 -7.802811264991760254e-01 2.422879934310913086e-01
-2.460510134696960449e-01 -8.161565661430358887e-01 2.720658183097839355e-01
-2.323986291885375977e-01 -8.348872661590576172e-01 2.672865390777587891e-01
-6.962859630584716797e-02 -8.004887700080871582e-01 1.313763856887817383e-01
3.916084766387939453e-02 -7.937105894088745117e-01 4.550451040267944336e-02
4.452860355377197266e-02 -8.236607313156127930e-01 5.054271221160888672e-02
6.204187870025634766e-02 -8.500510454177856445e-01 4.513537883758544922e-02
7.310009002685546875e-02 -8.783381581306457520e-01 4.528099298477172852e-02
8.439493179321289062e-02 -9.065721035003662109e-01 4.522824287414550781e-02
9.555518627166748047e-02 -9.348384141921997070e-01 4.528898000717163086e-02
1.067770719528198242e-01 -9.630966782569885254e-01 4.529970884323120117e-02
1.180654764175415039e-01 -9.913514256477355957e-01 4.525822401046752930e-02
1.294274330139160156e-01 -1.019607305526733398e+00 4.516041278839111328e-02
1.404869556427001953e-01 -1.047894358634948730e+00 4.530513286590576172e-02
1.518249511718750000e-01 -1.076166033744812012e+00 4.523050785064697266e-02
1.632618904113769531e-01 -1.104446172714233398e+00 4.508239030838012695e-02
1.749930381774902344e-01 -1.132744550704956055e+00 4.471319913864135742e-02
1.868445873260498047e-01 -1.161075949668884277e+00 4.426139593124389648e-02
1.988219022750854492e-01 -1.189448595046997070e+00 4.372537136077880859e-02
2.105425596237182617e-01 -1.217838048934936523e+00 4.339212179183959961e-02
2.224062681198120117e-01 -1.246268391609191895e+00 4.296123981475830078e-02
2.359939813613891602e-01 -1.274955987930297852e+00 4.128128290176391602e-02
2.931290864944458008e-01 -1.310434579849243164e+00 8.138298988342285156e-03
3.051301240921020508e-01 -1.340013504028320312e+00 7.953464984893798828e-03
3.167057037353515625e-01 -1.369524478912353516e+00 8.075535297393798828e-03
3.286535739898681641e-01 -1.399114131927490234e+00 7.934808731079101562e-03
3.405921459197998047e-01 -1.428714513778686523e+00 7.804632186889648438e-03
3.521414995193481445e-01 -1.458225965499877930e+00 7.946968078613281250e-03
3.640958070755004883e-01 -1.487847089767456055e+00 7.811009883880615234e-03
3.758792877197265625e-01 -1.517429351806640625e+00 7.794678211212158203e-03
3.876945972442626953e-01 -1.547027111053466797e+00 7.758677005767822266e-03
3.995552062988281250e-01 -1.576646685600280762e+00 7.694363594055175781e-03
4.112697839736938477e-01 -1.606222152709960938e+00 7.729113101959228516e-03
4.228608608245849609e-01 -1.635753631591796875e+00 7.845520973205566406e-03
4.347194433212280273e-01 -1.665388345718383789e+00 7.787406444549560547e-03
4.464684724807739258e-01 -1.694985389709472656e+00 7.802248001098632812e-03
4.581134319305419922e-01 -1.724541425704956055e+00 7.884562015533447266e-03
4.698626995086669922e-01 -1.754143476486206055e+00 7.900714874267578125e-03
4.817261695861816406e-01 -1.783801913261413574e+00 7.846117019653320312e-03
4.933203458786010742e-01 -1.813338160514831543e+00 7.961571216583251953e-03
5.050462484359741211e-01 -1.842937827110290527e+00 7.995009422302246094e-03
5.167174339294433594e-01 -1.872511982917785645e+00 8.062660694122314453e-03
-4.551538228988647461e-01 3.316878080368041992e-01 4.767376184463500977e-02
-4.444023966789245605e-01 3.046654462814331055e-01 4.766529798507690430e-02
-4.337298870086669922e-01 2.774219512939453125e-01 4.779058694839477539e-02
-4.236103296279907227e-01 2.487668991088867188e-01 4.880905151367187500e-02
-4.129918813705444336e-01 2.214586734771728516e-01 4.899829626083374023e-02
-4.015067219734191895e-01 1.962177753448486328e-01 4.783368110656738281e-02
-3.904178738594055176e-01 1.699276566505432129e-01 4.732125997543334961e-02
-3.790766596794128418e-01 1.441207528114318848e-01 4.645246267318725586e-02
-3.674691915512084961e-01 1.187652945518493652e-01 4.522621631622314453e-02
-3.563065528869628906e-01 9.236562252044677734e-02 4.468953609466552734e-02
-3.456354737281799316e-01 6.494617462158203125e-02 4.487204551696777344e-02
-3.354054689407348633e-01 3.671848773956298828e-02 4.566586017608642578e-02
-3.249660730361938477e-01 8.941888809204101562e-03 4.614788293838500977e-02
-3.146046996116638184e-01 -1.892507076263427734e-02 4.672133922576904297e-02
-3.042317628860473633e-01 -4.672116041183471680e-02 4.726296663284301758e-02
-2.937397360801696777e-01 -7.428169250488281250e-02 4.763406515121459961e-02
-2.832350730895996094e-01 -1.017931103706359863e-01 4.797923564910888672e-02
-2.727206945419311523e-01 -1.292634606361389160e-01 4.830360412597656250e-02
-2.620872259140014648e-01 -1.565443277359008789e-01 4.847210645675659180e-02
-2.514466047286987305e-01 -1.838065385818481445e-01 4.862892627716064453e-02
-2.406862378120422363e-01 -2.109086513519287109e-01 4.863864183425903320e-02
-2.296807765960693359e-01 -2.377195954322814941e-01 4.835903644561767578e-02
