1.349206686019897461e+00 -3.965830326080322266e+00 2.297876358032226562e+00
1.238907814025878906e+00 -3.967076301574707031e+00 2.275211572647094727e+00
1.132090330123901367e+00 -3.968186855316162109e+00 2.253245353698730469e+00
1.028649330139160156e+00 -3.969340801239013672e+00 2.231987476348876953e+00
9.287407994270324707e-01 -3.971625328063964844e+00 2.211658716201782227e+00
8.314535021781921387e-01 -3.972462654113769531e+00 2.191622257232666016e+00
7.372304797172546387e-01 -3.973831176757812500e+00 2.172313690185546875e+00
6.457266211509704590e-01 -3.974946975708007812e+00 2.153525114059448242e+00
5.568608641624450684e-01 -3.975943088531494141e+00 2.135263442993164062e+00
4.707443118095397949e-01 -3.977884769439697266e+00 2.117735862731933594e+00
3.867062926292419434e-01 -3.978080272674560547e+00 2.100336551666259766e+00
3.052398562431335449e-01 -3.979443073272705078e+00 2.083673477172851562e+00
2.260626554489135742e-01 -3.981156826019287109e+00 2.067545890808105469e+00
1.487978696823120117e-01 -3.981413364410400391e+00 2.051562309265136719e+00
7.369011640548706055e-02 -3.982207775115966797e+00 2.036119222640991211e+00
6.431937217712402344e-04 -3.983614921569824219e+00 2.021210193634033203e+00
1.994921922683715820e+00 1.737181067466735840e+00 1.397190928459167480e+00
1.994595527648925781e+00 1.703224062919616699e+00 1.402537345886230469e+00
1.994805812835693359e+00 1.668516874313354492e+00 1.408105373382568359e+00
1.995523452758789062e+00 1.633011221885681152e+00 1.413897275924682617e+00
1.995271444320678711e+00 1.596654653549194336e+00 1.419640064239501953e+00
1.959971666336059570e+00 1.559848785400390625e+00 1.418782234191894531e+00
1.951476097106933594e+00 1.522468328475952148e+00 1.423118829727172852e+00
1.952937126159667969e+00 1.484024882316589355e+00 1.429520130157470703e+00
1.958553314208984375e+00 1.444368720054626465e+00 1.436905622482299805e+00
1.961573839187622070e+00 1.403748273849487305e+00 1.443950533866882324e+00
1.962443590164184570e+00 1.362204313278198242e+00 1.450733065605163574e+00
1.963024377822875977e+00 1.319607615470886230e+00 1.457628250122070312e+00
1.963266611099243164e+00 1.275936603546142578e+00 1.464630246162414551e+00
1.963118553161621094e+00 1.231172084808349609e+00 1.471731901168823242e+00
1.960641384124755859e+00 1.185585260391235352e+00 1.478521347045898438e+00
1.964735269546508789e+00 1.137733578681945801e+00 1.486922264099121094e+00
1.976203680038452148e+00 1.087057590484619141e+00 1.497177124023437500e+00
1.976683139801025391e+00 1.036899566650390625e+00 1.505257368087768555e+00
1.976459503173828125e+00 9.854862093925476074e-01 1.513403892517089844e+00
1.965285539627075195e+00 9.353312253952026367e-01 1.519265174865722656e+00
1.963966846466064453e+00 8.814776539802551270e-01 1.527591705322265625e+00
2.001548051834106445e+00 8.148735165596008301e-01 1.545354723930358887e+00
2.001744031906127930e+00 7.565931677818298340e-01 1.554674744606018066e+00
2.002189397811889648e+00 6.964747309684753418e-01 1.564335107803344727e+00
2.002782583236694336e+00 6.344568133354187012e-01 1.574325919151306152e+00
1.967417716979980469e+00 5.841395854949951172e-01 1.575607776641845703e+00
1.969623327255249023e+00 5.183799266815185547e-01 1.586501598358154297e+00
1.982564210891723633e+00 4.458332061767578125e-01 1.600520372390747070e+00
1.983757972717285156e+00 3.757855892181396484e-01 1.611904621124267578e+00
1.983690738677978516e+00 3.039904832839965820e-01 1.623327016830444336e+00
1.984817504882812500e+00 2.291830778121948242e-01 1.635456562042236328e+00
1.985293626785278320e+00 1.521311998367309570e-01 1.647819876670837402e+00
1.986651659011840820e+00 7.188653945922851562e-02 1.660859584808349609e+00
1.978949069976806641e+00 -5.817532539367675781e-03 1.671769618988037109e+00
1.970439910888671875e+00 -8.547782897949218750e-02 1.682837724685668945e+00
2.013159275054931641e+00 -2.017098665237426758e-01 1.709483385086059570e+00
2.014363527297973633e+00 -2.951501607894897461e-01 1.724595665931701660e+00
2.006783246994018555e+00 -3.857430219650268555e-01 1.737581968307495117e+00
1.980186223983764648e+00 -4.648320674896240234e-01 1.745115637779235840e+00
1.994410514831542969e+00 -5.788545608520507812e-01 1.765984773635864258e+00
1.995684623718261719e+00 -6.871399879455566406e-01 1.783474683761596680e+00
1.996929883956909180e+00 -7.999103069305419922e-01 1.801673412322998047e+00
1.998270273208618164e+00 -9.175620079040527344e-01 1.820667743682861328e+00
1.986941814422607422e+00 -1.027908086776733398e+00 1.836086750030517578e+00
2.025417089462280273e+00 -1.193658590316772461e+00 1.869811773300170898e+00
2.026314973831176758e+00 -1.328404664993286133e+00 1.891444563865661621e+00
2.028504610061645508e+00 -1.470827341079711914e+00 1.914546012878417969e+00
2.029762983322143555e+00 -1.618944168090820312e+00 1.938377141952514648e+00
2.031643390655517578e+00 -1.775010824203491211e+00 1.963593125343322754e+00
2.033184051513671875e+00 -1.938419342041015625e+00 1.989913582801818848e+00
2.035192012786865234e+00 -2.110792398452758789e+00 2.017750740051269531e+00
2.036705493927001953e+00 -2.291496038436889648e+00 2.046820878982543945e+00
2.038431167602539062e+00 -2.482204437255859375e+00 2.077524900436401367e+00
2.040942430496215820e+00 -2.684654712677001953e+00 2.110248565673828125e+00
2.042717695236206055e+00 -2.897409915924072266e+00 2.144473552703857422e+00
2.044772386550903320e+00 -3.123039722442626953e+00 2.180802345275878906e+00
2.046543598175048828e+00 -3.361699581146240234e+00 2.219152450561523438e+00
2.049264430999755859e+00 -3.616902828216552734e+00 2.260318517684936523e+00
2.051358699798583984e+00 -3.887167453765869141e+00 2.303764343261718750e+00
1.949638843536376953e+00 -3.956633567810058594e+00 2.295463562011718750e+00
1.819611072540283203e+00 -3.959969520568847656e+00 2.271241188049316406e+00
1.693182229995727539e+00 -3.961256504058837891e+00 2.247377634048461914e+00
1.571414470672607422e+00 -3.963346481323242188e+00 2.224529266357421875e+00
1.453445911407470703e+00 -3.964707374572753906e+00 2.202287673950195312e+00
1.339520931243896484e+00 -3.966447830200195312e+00 2.180876493453979492e+00
1.229495763778686523e+00 -3.968777179718017578e+00 2.160301685333251953e+00
1.122339248657226562e+00 -3.969177722930908203e+00 2.139965534210205078e+00
1.019158601760864258e+00 -3.971457481384277344e+00 2.120686054229736328e+00
9.186906218528747559e-01 -3.972141265869140625e+00 2.101668357849121094e+00
8.216595053672790527e-01 -3.974137306213378906e+00 2.083514213562011719e+00
7.271963953971862793e-01 -3.974837303161621094e+00 2.065642356872558594e+00
6.357056498527526855e-01 -3.976223468780517578e+00 2.048445701599121094e+00
5.468557476997375488e-01 -3.977510452270507812e+00 2.031736135482788086e+00
4.605616927146911621e-01 -3.978823661804199219e+00 2.015517234802246094e+00
3.765543103218078613e-01 -3.979334831237792969e+00 1.999605774879455566e+00
2.949510216712951660e-01 -3.980094909667968750e+00 1.984191775321960449e+00
2.158130407333374023e-01 -3.982161998748779297e+00 1.969455242156982422e+00
1.385874748229980469e-01 -3.982789516448974609e+00 1.954853415489196777e+00
6.351333856582641602e-02 -3.983964443206787109e+00 1.940748453140258789e+00
-9.734332561492919922e-03 -3.983872413635253906e+00 1.926789402961730957e+00
1.995414018630981445e+00 1.742301821708679199e+00 1.352583527565002441e+00
1.995323896408081055e+00 1.708335280418395996e+00 1.357481956481933594e+00
1.995293378829956055e+00 1.673596501350402832e+00 1.362502574920654297e+00
1.995771646499633789e+00 1.638064265251159668e+00 1.367725968360900879e+00
1.995285749435424805e+00 1.601683616638183594e+00 1.372905254364013672e+00
1.995725154876708984e+00 1.564446449279785156e+00 1.378368616104125977e+00
1.995615005493164062e+00 1.526317954063415527e+00 1.383865714073181152e+00
1.992502450942993164e+00 1.487383365631103516e+00 1.388959527015686035e+00
1.975812196731567383e+00 1.448307633399963379e+00 1.391722559928894043e+00
1.961365461349487305e+00 1.408595323562622070e+00 1.394966244697570801e+00
1.962514638900756836e+00 1.366997122764587402e+00 1.401183366775512695e+00
1.960517406463623047e+00 1.324620485305786133e+00 1.406968355178833008e+00
1.956285715103149414e+00 1.281471848487854004e+00 1.412478089332580566e+00
1.953593492507934570e+00 1.237119674682617188e+00 1.418428540229797363e+00
1.953799962997436523e+00 1.191237926483154297e+00 1.425102233886718750e+00
1.957757949829101562e+00 1.143483638763427734e+00 1.432696461677551270e+00
1.963012218475341797e+00 1.094059944152832031e+00 1.440756678581237793e+00
1.964789152145385742e+00 1.043818950653076172e+00 1.448333024978637695e+00
1.965850114822387695e+00 9.922756552696228027e-01 1.455973863601684570e+00
1.966139316558837891e+00 9.394236803054809570e-01 1.463670253753662109e+00
1.966041088104248047e+00 8.851440548896789551e-01 1.471506118774414062e+00
2.001337051391601562e+00 8.191223740577697754e-01 1.487169981002807617e+00
2.002296924591064453e+00 7.605140209197998047e-01 1.495815277099609375e+00
2.002595901489257812e+00 7.003275752067565918e-01 1.504574537277221680e+00
2.003490924835205078e+00 6.380813717842102051e-01 1.513735055923461914e+00
1.971813201904296875e+00 5.861822366714477539e-01 1.515757918357849121e+00
1.970293045043945312e+00 5.216875076293945312e-01 1.524825453758239746e+00
1.982700109481811523e+00 4.492285251617431641e-01 1.537456870079040527e+00
1.983738899230957031e+00 3.790971040725708008e-01 1.547783136367797852e+00
1.984802007675170898e+00 3.065947294235229492e-01 1.558456420898437500e+00
1.985328435897827148e+00 2.318857908248901367e-01 1.569356203079223633e+00
1.986468076705932617e+00 1.542716026306152344e-01 1.580782294273376465e+00
1.987633466720581055e+00 7.389593124389648438e-02 1.592612504959106445e+00
1.981731891632080078e+00 -5.145668983459472656e-03 1.603025674819946289e+00
1.971731185913085938e+00 -8.420193195343017578e-02 1.612731337547302246e+00
2.014054536819458008e+00 -2.004436254501342773e-01 1.636877775192260742e+00
2.014638900756835938e+00 -2.937655448913574219e-01 1.650480270385742188e+00
2.007549524307250977e+00 -3.850395679473876953e-01 1.662457704544067383e+00
1.981688499450683594e+00 -4.650654792785644531e-01 1.669557094573974609e+00
1.995693206787109375e+00 -5.793211460113525391e-01 1.688512086868286133e+00
1.997036457061767578e+00 -6.881041526794433594e-01 1.704482913017272949e+00
1.997608184814453125e+00 -8.007514476776123047e-01 1.720879197120666504e+00
1.999325513839721680e+00 -9.192419052124023438e-01 1.738319158554077148e+00
1.987926244735717773e+00 -1.030057907104492188e+00 1.752377271652221680e+00
2.026541948318481445e+00 -1.196561336517333984e+00 1.783153295516967773e+00
2.027041673660278320e+00 -1.331528663635253906e+00 1.802766323089599609e+00
2.029143095016479492e+00 -1.474538564682006836e+00 1.823820114135742188e+00
2.030892133712768555e+00 -1.623979091644287109e+00 1.845743179321289062e+00
2.032002449035644531e+00 -1.779929876327514648e+00 1.868497729301452637e+00
2.034517526626586914e+00 -1.945474624633789062e+00 1.892883419990539551e+00
1.842715740203857422e+00 -1.854707241058349609e+00 1.846537113189697266e+00
1.987711429595947266e+00 -2.228758335113525391e+00 1.925761938095092773e+00
2.039958477020263672e+00 -2.492890834808349609e+00 1.973022937774658203e+00
2.041565895080566406e+00 -2.695274353027343750e+00 2.002581119537353516e+00
2.043428897857666016e+00 -2.909590721130371094e+00 2.033909797668457031e+00
2.045496940612792969e+00 -3.136816978454589844e+00 2.067142009735107422e+00
2.048129796981811523e+00 -3.378784656524658203e+00 2.102604389190673828e+00
2.049799442291259766e+00 -3.633997917175292969e+00 2.139816761016845703e+00
2.052115201950073242e+00 -3.906841278076171875e+00 2.179691076278686523e+00
1.941770792007446289e+00 -3.959711551666259766e+00 2.168231487274169922e+00
1.810030698776245117e+00 -3.959754467010498047e+00 2.145424365997314453e+00
1.684291601181030273e+00 -3.962973117828369141e+00 2.124115467071533203e+00
1.452178716659545898e+00 -3.692680358886718750e+00 2.044815778732299805e+00
1.444058418273925781e+00 -3.965937137603759766e+00 2.082942962646484375e+00
1.330086708068847656e+00 -3.967892169952392578e+00 2.063488960266113281e+00
1.219403982162475586e+00 -3.968642234802246094e+00 2.044430732727050781e+00
1.112544298171997070e+00 -3.970181941986083984e+00 2.026148319244384766e+00
1.009354591369628906e+00 -3.972716331481933594e+00 2.008645534515380859e+00
9.086194634437561035e-01 -3.972741603851318359e+00 1.991204738616943359e+00
8.113544583320617676e-01 -3.974093437194824219e+00 1.974556803703308105e+00
7.173928618431091309e-01 -3.976941108703613281e+00 1.958697319030761719e+00
6.256876587867736816e-01 -3.977710723876953125e+00 1.942927956581115723e+00
5.368581414222717285e-01 -3.979327201843261719e+00 1.927779078483581543e+00
4.503917098045349121e-01 -3.980042934417724609e+00 1.912909150123596191e+00
3.664180636405944824e-01 -3.980911731719970703e+00 1.898493051528930664e+00
2.848454117774963379e-01 -3.982043743133544922e+00 1.884530782699584961e+00
2.054302096366882324e-01 -3.982603073120117188e+00 1.870859265327453613e+00
1.282553672790527344e-01 -3.983633041381835938e+00 1.857643842697143555e+00
5.310040712356567383e-02 -3.984274864196777344e+00 1.844722032546997070e+00
-1.997935771942138672e-02 -3.985568046569824219e+00 1.832253694534301758e+00
1.995222091674804688e+00 1.747405409812927246e+00 1.307673811912536621e+00
1.995351076126098633e+00 1.713438272476196289e+00 1.312108397483825684e+00
1.996026515960693359e+00 1.678707480430603027e+00 1.316727280616760254e+00
1.995291233062744141e+00 1.643125534057617188e+00 1.321237087249755859e+00
1.996002912521362305e+00 1.606738686561584473e+00 1.326076865196228027e+00
1.996200799942016602e+00 1.569472789764404297e+00 1.330950856208801270e+00
1.995847463607788086e+00 1.531318664550781250e+00 1.335854411125183105e+00
1.996359109878540039e+00 1.492215871810913086e+00 1.341016054153442383e+00
1.996710538864135742e+00 1.452144742012023926e+00 1.346278548240661621e+00
1.996878623962402344e+00 1.411077499389648438e+00 1.351642012596130371e+00
1.997284173965454102e+00 1.368950128555297852e+00 1.357180118560791016e+00
1.997397899627685547e+00 1.325763344764709473e+00 1.362810492515563965e+00
1.997652053833007812e+00 1.281439661979675293e+00 1.368610501289367676e+00
1.997989892959594727e+00 1.235935330390930176e+00 1.374577045440673828e+00
1.998356819152832031e+00 1.189207553863525391e+00 1.380707025527954102e+00
1.998677968978881836e+00 1.141218185424804688e+00 1.386993885040283203e+00
1.983294248580932617e+00 1.094825029373168945e+00 1.390625953674316406e+00
1.967864036560058594e+00 1.047659635543823242e+00 1.394351005554199219e+00
1.965455770492553711e+00 9.967651963233947754e-01 1.400590062141418457e+00
1.963694334030151367e+00 9.443458914756774902e-01 1.407128095626831055e+00
1.965294122695922852e+00 8.895853161811828613e-01 1.414494276046752930e+00
2.001957178115844727e+00 8.231558799743652344e-01 1.428841114044189453e+00
2.002293109893798828e+00 7.646300196647644043e-01 1.436499595642089844e+00
2.003332853317260742e+00 7.040951251983642578e-01 1.444528818130493164e+00
2.003604173660278320e+00 6.419398188591003418e-01 1.452649116516113281e+00
1.976542711257934570e+00 5.881329774856567383e-01 1.455424666404724121e+00
1.971690416336059570e+00 5.247256755828857422e-01 1.462909102439880371e+00
1.972059726715087891e+00 4.572399854660034180e-01 1.471737265586853027e+00
1.973028421401977539e+00 3.872673511505126953e-01 1.480982065200805664e+00
1.970568895339965820e+00 3.165805339813232422e-01 1.489785432815551758e+00
1.978329181671142578e+00 2.384201288223266602e-01 1.501152634620666504e+00
1.987376928329467773e+00 1.565744876861572266e-01 1.513199567794799805e+00
1.988340377807617188e+00 7.607948780059814453e-02 1.523810982704162598e+00
1.983419656753540039e+00 -3.799557685852050781e-03 1.533425331115722656e+00
1.972717523574829102e+00 -8.271825313568115234e-02 1.542014122009277344e+00
2.014600038528442383e+00 -1.989316940307617188e-01 1.563644409179687500e+00
2.015333414077758789e+00 -2.926619052886962891e-01 1.575940132141113281e+00
2.009096860885620117e+00 -3.848990201950073242e-01 1.586955547332763672e+00
1.982432365417480469e+00 -4.647068977355957031e-01 1.593172192573547363e+00
1.996580600738525391e+00 -5.794627666473388672e-01 1.610291004180908203e+00
1.997976779937744141e+00 -6.887171268463134766e-01 1.624707460403442383e+00
1.998929262161254883e+00 -8.021674156188964844e-01 1.639600276947021484e+00
2.000635623931884766e+00 -9.211661815643310547e-01 1.655331611633300781e+00
1.988463163375854492e+00 -1.031779050827026367e+00 1.667809963226318359e+00
2.027188301086425781e+00 -1.198987960815429688e+00 1.695575952529907227e+00
2.027925491333007812e+00 -1.334843158721923828e+00 1.713346838951110840e+00
2.029907703399658203e+00 -1.478419542312622070e+00 1.732315301895141602e+00
2.031504631042480469e+00 -1.628437042236328125e+00 1.752060770988464355e+00
2.033030509948730469e+00 -1.785720825195312500e+00 1.772739410400390625e+00
2.034730434417724609e+00 -1.951124906539916992e+00 1.794500827789306641e+00
1.823353290557861328e+00 -1.834136724472045898e+00 1.746355772018432617e+00
1.988884687423706055e+00 -2.237649679183959961e+00 1.824593544006347656e+00
2.040385246276855469e+00 -2.502017498016357422e+00 1.866977334022521973e+00
2.042638063430786133e+00 -2.706702709197998047e+00 1.893929839134216309e+00
2.044539213180541992e+00 -2.922552108764648438e+00 1.922278404235839844e+00
2.046574592590332031e+00 -3.151348590850830078e+00 1.952330589294433594e+00
2.048648118972778320e+00 -3.394097328186035156e+00 1.984201908111572266e+00
2.050601720809936523e+00 -3.651794910430908203e+00 2.017997264862060547e+00
2.053518533706665039e+00 -3.928042411804199219e+00 2.054353713989257812e+00
1.932871341705322266e+00 -3.960722446441650391e+00 2.039799451828002930e+00
1.801442623138427734e+00 -3.961857318878173828e+00 2.019465208053588867e+00
1.674867630004882812e+00 -3.963556766510009766e+00 1.999960660934448242e+00
1.448106527328491211e+00 -3.705702781677246094e+00 1.931111097335815430e+00
1.434557437896728516e+00 -3.967000961303710938e+00 1.962958693504333496e+00
1.254301548004150391e+00 -3.785532474517822266e+00 1.911283493041992188e+00
1.209855318069458008e+00 -3.970231533050537109e+00 1.928361058235168457e+00
1.102981805801391602e+00 -3.972060203552246094e+00 1.911943674087524414e+00
9.992235302925109863e-01 -3.973055362701416016e+00 1.895903587341308594e+00
8.990405201911926270e-01 -3.975234031677246094e+00 1.880574226379394531e+00
8.015224337577819824e-01 -3.975983142852783203e+00 1.865474462509155273e+00
7.071054577827453613e-01 -3.977313518524169922e+00 1.850933551788330078e+00
6.154418587684631348e-01 -3.978428840637207031e+00 1.836793661117553711e+00
5.264473557472229004e-01 -3.979468822479248047e+00 1.823060035705566406e+00
4.400338530540466309e-01 -3.980559825897216797e+00 1.809735059738159180e+00
3.561099171638488770e-01 -3.981818675994873047e+00 1.796820163726806641e+00
2.744207382202148438e-01 -3.982415199279785156e+00 1.784167289733886719e+00
1.950607895851135254e-01 -3.983391761779785156e+00 1.771926879882812500e+00
1.179360151290893555e-01 -3.984858989715576172e+00 1.760098457336425781e+00
4.270076751708984375e-02 -3.984993457794189453e+00 1.748391389846801758e+00
-3.044074773788452148e-02 -3.985798358917236328e+00 1.737097740173339844e+00
1.995769739151000977e+00 1.752574205398559570e+00 1.262682199478149414e+00
1.995621442794799805e+00 1.718574285507202148e+00 1.266576290130615234e+00
1.995543003082275391e+00 1.683800220489501953e+00 1.270569324493408203e+00
1.995987415313720703e+00 1.648232102394104004e+00 1.274726033210754395e+00
1.995955944061279297e+00 1.611812233924865723e+00 1.278915047645568848e+00
1.996379852294921875e+00 1.574524641036987305e+00 1.283266901969909668e+00
1.996256351470947266e+00 1.536338925361633301e+00 1.287646532058715820e+00
1.996517419815063477e+00 1.497213244438171387e+00 1.292187571525573730e+00
1.997115612030029297e+00 1.457098841667175293e+00 1.296889066696166992e+00
1.997042179107666016e+00 1.416009068489074707e+00 1.301609873771667480e+00
1.997215270996093750e+00 1.373863101005554199e+00 1.306486487388610840e+00
1.997588157653808594e+00 1.330613493919372559e+00 1.311517715454101562e+00
1.997623443603515625e+00 1.286269187927246094e+00 1.316628456115722656e+00
1.998223543167114258e+00 1.240685105323791504e+00 1.321959972381591797e+00
1.998847723007202148e+00 1.193865060806274414e+00 1.327437162399291992e+00
1.999440431594848633e+00 1.145767092704772949e+00 1.333057045936584473e+00
1.999450206756591797e+00 1.096441864967346191e+00 1.338737607002258301e+00
1.999765634536743164e+00 1.045686244964599609e+00 1.344625234603881836e+00
2.000310659408569336e+00 9.934421777725219727e-01 1.350715875625610352e+00
2.000528097152709961e+00 9.397687315940856934e-01 1.356925964355468750e+00
2.001742124557495117e+00 8.842732906341552734e-01 1.363483548164367676e+00
2.002001047134399414e+00 8.273776769638061523e-01 1.370070338249206543e+00
2.003067493438720703e+00 7.685308456420898438e-01 1.376993417739868164e+00
2.003456830978393555e+00 7.080882787704467773e-01 1.384006619453430176e+00
2.003993749618530273e+00 6.457234621047973633e-01 1.391261458396911621e+00
1.998255968093872070e+00 5.837475061416625977e-01 1.397603392601013184e+00
1.979146003723144531e+00 5.253673791885375977e-01 1.401680827140808105e+00
1.970835208892822266e+00 4.612413644790649414e-01 1.407914161682128906e+00
1.970301628112792969e+00 3.918273448944091797e-01 1.415832519531250000e+00
1.968084812164306641e+00 3.209304809570312500e-01 1.423688888549804688e+00
1.965396165847778320e+00 2.479625940322875977e-01 1.431718111038208008e+00
1.966365098953247070e+00 1.706343889236450195e-01 1.440755724906921387e+00
1.971554517745971680e+00 8.817243576049804688e-02 1.450968384742736816e+00
1.978166580200195312e+00 1.705288887023925781e-03 1.461838960647583008e+00
1.974570274353027344e+00 -8.176362514495849609e-02 1.470951795578002930e+00
2.014756441116333008e+00 -1.971483230590820312e-01 1.489797830581665039e+00
2.016403675079345703e+00 -2.918083667755126953e-01 1.500924825668334961e+00
2.009455442428588867e+00 -3.838769197463989258e-01 1.510564088821411133e+00
1.983515977859497070e+00 -4.646024703979492188e-01 1.516269207000732422e+00
1.997767210006713867e+00 -5.798418521881103516e-01 1.531509876251220703e+00
1.999185562133789062e+00 -6.895565986633300781e-01 1.544338583946228027e+00
2.000134706497192383e+00 -8.034822940826416016e-01 1.557587146759033203e+00
2.001811027526855469e+00 -9.229707717895507812e-01 1.571576833724975586e+00
1.988834857940673828e+00 -1.033348321914672852e+00 1.582489967346191406e+00
2.027637243270874023e+00 -1.201226711273193359e+00 1.607188463211059570e+00
2.028919458389282227e+00 -1.338297367095947266e+00 1.623148202896118164e+00
2.030754566192626953e+00 -1.482420682907104492e+00 1.639996290206909180e+00
2.032167673110961914e+00 -1.632989168167114258e+00 1.657528162002563477e+00
2.034080982208251953e+00 -1.791583538055419922e+00 1.676053047180175781e+00
2.036106824874877930e+00 -1.958342313766479492e+00 1.695533752441406250e+00
1.812445163726806641e+00 -1.825092554092407227e+00 1.649242401123046875e+00
1.813384771347045898e+00 -1.993197202682495117e+00 1.668727755546569824e+00
2.041257381439208984e+00 -2.511900901794433594e+00 1.759982585906982422e+00
2.043078184127807617e+00 -2.717240810394287109e+00 1.783877134323120117e+00
2.045012235641479492e+00 -2.934583187103271484e+00 1.809169173240661621e+00
2.047488451004028320e+00 -3.165741920471191406e+00 1.836127161979675293e+00
2.049893617630004883e+00 -3.410904407501220703e+00 1.864687681198120117e+00
2.052067518234252930e+00 -3.671063423156738281e+00 1.894942879676818848e+00
2.052536725997924805e+00 -3.944656848907470703e+00 1.926509022712707520e+00
1.923728704452514648e+00 -3.961323261260986328e+00 1.910604119300842285e+00
1.792250871658325195e+00 -3.962727546691894531e+00 1.892572402954101562e+00
1.665633678436279297e+00 -3.964704513549804688e+00 1.875279188156127930e+00
1.424527406692504883e+00 -3.670301914215087891e+00 1.808018922805786133e+00
1.425263404846191406e+00 -3.968741416931152344e+00 1.842482805252075195e+00
1.235611200332641602e+00 -3.760542392730712891e+00 1.792267799377441406e+00
1.200213193893432617e+00 -3.971696376800537109e+00 1.811681509017944336e+00
1.093047618865966797e+00 -3.972936630249023438e+00 1.796995162963867188e+00
9.893103241920471191e-01 -3.974271297454833984e+00 1.782794237136840820e+00
8.888857960700988770e-01 -3.975877761840820312e+00 1.769082784652709961e+00
7.914052605628967285e-01 -3.976988315582275391e+00 1.755721807479858398e+00
6.970253586769104004e-01 -3.978699684143066406e+00 1.742858886718750000e+00
6.053959727287292480e-01 -3.980204582214355469e+00 1.730352878570556641e+00
5.162315964698791504e-01 -3.980711936950683594e+00 1.718073248863220215e+00
4.296724200248718262e-01 -3.981275081634521484e+00 1.706160306930541992e+00
3.458030819892883301e-01 -3.982972621917724609e+00 1.694750308990478516e+00
2.640004754066467285e-01 -3.983057975769042969e+00 1.683440685272216797e+00
1.848471760749816895e-01 -3.985454082489013672e+00 1.672763705253601074e+00
1.074874401092529297e-01 -3.985485553741455078e+00 1.662062644958496094e+00
3.231114149093627930e-02 -3.986112594604492188e+00 1.651732206344604492e+00
-4.089224338531494141e-02 -3.986454010009765625e+00 1.641642093658447266e+00
1.995607137680053711e+00 1.757722020149230957e+00 1.217403888702392578e+00
1.996127843856811523e+00 1.723744630813598633e+00 1.220871329307556152e+00
1.996239900588989258e+00 1.688956379890441895e+00 1.224370837211608887e+00
1.996885061264038086e+00 1.653367996215820312e+00 1.228014707565307617e+00
1.996574401855468750e+00 1.616914153099060059e+00 1.231629967689514160e+00
1.996724605560302734e+00 1.579598665237426758e+00 1.235387206077575684e+00
1.996820211410522461e+00 1.541380167007446289e+00 1.239228248596191406e+00
1.996816873550415039e+00 1.502229213714599609e+00 1.243150949478149414e+00
1.997151374816894531e+00 1.462094783782958984e+00 1.247212886810302734e+00
1.997300624847412109e+00 1.420958161354064941e+00 1.251352906227111816e+00
1.997709989547729492e+00 1.378754258155822754e+00 1.255631327629089355e+00
1.997837305068969727e+00 1.335481762886047363e+00 1.259982705116271973e+00
1.998591661453247070e+00 1.291010499000549316e+00 1.264529943466186523e+00
1.998474597930908203e+00 1.245456695556640625e+00 1.269080400466918945e+00
1.999345541000366211e+00 1.198546648025512695e+00 1.273886084556579590e+00
1.999225139617919922e+00 1.150502324104309082e+00 1.278685688972473145e+00
1.999967098236083984e+00 1.100987315177917480e+00 1.283736705780029297e+00
2.000532865524291992e+00 1.050106763839721680e+00 1.288903474807739258e+00
2.000846624374389648e+00 9.978287220001220703e-01 1.294179677963256836e+00
2.001318931579589844e+00 9.440068602561950684e-01 1.299629926681518555e+00
2.001850605010986328e+00 8.885920047760009766e-01 1.305246829986572266e+00
2.002824068069458008e+00 8.314025998115539551e-01 1.311094760894775391e+00
2.003209352493286133e+00 7.726491689682006836e-01 1.317028522491455078e+00
2.004307031631469727e+00 7.118671536445617676e-01 1.323251605033874512e+00
2.004623413085937500e+00 6.494465470314025879e-01 1.329544544219970703e+00
2.005430459976196289e+00 5.848784446716308594e-01 1.336111903190612793e+00
2.006153345108032227e+00 5.182620286941528320e-01 1.342874288558959961e+00
2.007122993469238281e+00 4.493622779846191406e-01 1.349895358085632324e+00
2.008647918701171875e+00 3.779140710830688477e-01 1.357238769531250000e+00
2.008836030960083008e+00 3.046596050262451172e-01 1.364601731300354004e+00
2.009750127792358398e+00 2.285450696945190430e-01 1.372339010238647461e+00
2.011226177215576172e+00 1.494656801223754883e-01 1.380441188812255859e+00
2.011833429336547852e+00 6.803798675537109375e-02 1.388673782348632812e+00
2.013103246688842773e+00 -1.672136783599853516e-02 1.397320270538330078e+00
2.010766506195068359e+00 -1.023561954498291016e-01 1.405618786811828613e+00
2.015673875808715820e+00 -1.958554983139038086e-01 1.415580391883850098e+00
2.017020940780639648e+00 -2.906268835067749023e-01 1.425239324569702148e+00
2.010895013809204102e+00 -3.836370706558227539e-01 1.433819293975830078e+00
1.974950790405273438e+00 -4.570639133453369141e-01 1.436835527420043945e+00
1.980080127716064453e+00 -5.649528503417968750e-01 1.448265790939331055e+00
1.987386465072631836e+00 -6.793467998504638672e-01 1.460610866546630859e+00
1.989650011062622070e+00 -7.943761348724365234e-01 1.472410440444946289e+00
1.991173982620239258e+00 -9.137282371520996094e-01 1.484553813934326172e+00
1.988657474517822266e+00 -1.034388303756713867e+00 1.496340274810791016e+00
2.028847455978393555e+00 -1.204264640808105469e+00 1.518216371536254883e+00
2.029977083206176758e+00 -1.341842174530029297e+00 1.532138347625732422e+00
2.031632661819458008e+00 -1.486485481262207031e+00 1.546831846237182617e+00
2.032834291458129883e+00 -1.637580394744873047e+00 1.562117099761962891e+00
1.942050695419311523e+00 -1.681558132171630859e+00 1.555559039115905762e+00
1.821484088897705078e+00 -1.683480262756347656e+00 1.541189670562744141e+00
1.705866336822509766e+00 -1.684985399246215820e+00 1.527376174926757812e+00
1.603365659713745117e+00 -1.698240995407104492e+00 1.516324520111083984e+00
1.660382747650146484e+00 -1.946220874786376953e+00 1.548058986663818359e+00
1.614117622375488281e+00 -2.048274993896484375e+00 1.552697181701660156e+00
1.608957290649414062e+00 -2.221355915069580078e+00 1.569417238235473633e+00
1.829162836074829102e+00 -2.797626972198486328e+00 1.653757095336914062e+00
1.660479545593261719e+00 -2.711365222930908203e+00 1.624740123748779297e+00
1.598999738693237305e+00 -2.813995361328125000e+00 1.627598285675048828e+00
2.049121856689453125e+00 -3.956543922424316406e+00 1.796449661254882812e+00
1.915130853652954102e+00 -3.963192462921142578e+00 1.780932545661926270e+00
1.783602237701416016e+00 -3.964932918548583984e+00 1.765220999717712402e+00
1.594593048095703125e+00 -3.819293022155761719e+00 1.727799177169799805e+00
1.411950111389160156e+00 -3.662256240844726562e+00 1.690004110336303711e+00
1.415809869766235352e+00 -3.970198631286621094e+00 1.721326828002929688e+00
1.219773769378662109e+00 -3.743412971496582031e+00 1.674925327301025391e+00
1.190147876739501953e+00 -3.972056865692138672e+00 1.694257736206054688e+00
1.083020210266113281e+00 -3.973672866821289062e+00 1.681480884552001953e+00
9.795970320701599121e-01 -3.976321220397949219e+00 1.669254779815673828e+00
8.184348940849304199e-01 -3.762006759643554688e+00 1.628314971923828125e+00
7.250049710273742676e-01 -3.764406204223632812e+00 1.617270946502685547e+00
5.812645554542541504e-01 -3.551130294799804688e+00 1.578539371490478516e+00
4.966004490852355957e-01 -3.552349090576171875e+00 1.568435907363891602e+00
4.142398238182067871e-01 -3.552716255187988281e+00 1.558525323867797852e+00
3.411077857017517090e-01 -3.587528705596923828e+00 1.553180694580078125e+00
2.738685011863708496e-01 -3.647664070129394531e+00 1.551085233688354492e+00
2.096296548843383789e-01 -3.722884178161621094e+00 1.550863742828369141e+00
1.459777355194091797e-01 -3.801843643188476562e+00 1.551087856292724609e+00
3.697264194488525391e-02 -3.557981967926025391e+00 1.513486742973327637e+00
1.875197887420654297e-02 -3.962557792663574219e+00 1.551825523376464844e+00
-5.134022235870361328e-02 -3.987501144409179688e+00 1.545859098434448242e+00
1.996149778366088867e+00 1.762935996055603027e+00 1.172012090682983398e+00
1.995882272720336914e+00 1.728899598121643066e+00 1.174882650375366211e+00
1.996661186218261719e+00 1.694126129150390625e+00 1.177924036979675293e+00
1.996029376983642578e+00 1.658484458923339844e+00 1.180893898010253906e+00
1.996391296386718750e+00 1.622031092643737793e+00 1.184035301208496094e+00
1.996249914169311523e+00 1.584698200225830078e+00 1.187199592590332031e+00
1.997517108917236328e+00 1.546443939208984375e+00 1.190587639808654785e+00
1.997225046157836914e+00 1.507265567779541016e+00 1.193893671035766602e+00
1.997765064239501953e+00 1.467087268829345703e+00 1.197370529174804688e+00
1.997649192810058594e+00 1.425925493240356445e+00 1.200863599777221680e+00
1.998262405395507812e+00 1.383665800094604492e+00 1.204525351524353027e+00
1.998122692108154297e+00 1.340370774269104004e+00 1.208197593688964844e+00
1.998613834381103516e+00 1.295882463455200195e+00 1.212036371231079102e+00
1.999201774597167969e+00 1.250192284584045410e+00 1.215987682342529297e+00
1.999817848205566406e+00 1.203257083892822266e+00 1.220047712326049805e+00
1.999922752380371094e+00 1.155112266540527344e+00 1.224158167839050293e+00
2.000411510467529297e+00 1.105571150779724121e+00 1.228427052497863770e+00
2.000729084014892578e+00 1.054667353630065918e+00 1.232794284820556641e+00
2.001280307769775391e+00 1.002263069152832031e+00 1.237313508987426758e+00
2.001976728439331055e+00 9.483028054237365723e-01 1.241980075836181641e+00
2.002740621566772461e+00 8.927315473556518555e-01 1.246790766716003418e+00
2.003003120422363281e+00 8.356340527534484863e-01 1.251679778099060059e+00
2.003618001937866211e+00 7.767100930213928223e-01 1.256760597229003906e+00
2.004473686218261719e+00 7.158935070037841797e-01 1.262027502059936523e+00
2.005007266998291016e+00 6.532797217369079590e-01 1.267414093017578125e+00
2.006025791168212891e+00 5.885012149810791016e-01 1.273035049438476562e+00
2.006955146789550781e+00 5.216554403305053711e-01 1.278822898864746094e+00
2.007672071456909180e+00 4.526991844177246094e-01 1.284768581390380859e+00
2.008504629135131836e+00 3.813931941986083984e-01 1.290926218032836914e+00
2.009312629699707031e+00 3.076794147491455078e-01 1.297286272048950195e+00
2.010830402374267578e+00 2.310661077499389648e-01 1.303966522216796875e+00
2.011599302291870117e+00 1.521371603012084961e-01 1.310766696929931641e+00
2.012764692306518555e+00 7.017147541046142578e-02 1.317866325378417969e+00
2.013741016387939453e+00 -1.467120647430419922e-02 1.325191378593444824e+00
2.015191316604614258e+00 -1.029521226882934570e-01 1.332858085632324219e+00
2.016510725021362305e+00 -1.944948434829711914e-01 1.340789079666137695e+00
2.017928600311279297e+00 -2.896355390548706055e-01 1.349036693572998047e+00
2.018854379653930664e+00 -3.881572484970092773e-01 1.357521295547485352e+00
2.020653724670410156e+00 -4.912762641906738281e-01 1.366487503051757812e+00
2.021941900253295898e+00 -5.982124805450439453e-01 1.375726103782653809e+00
2.023264646530151367e+00 -7.096271514892578125e-01 1.385349631309509277e+00
2.024755239486694336e+00 -8.259227275848388672e-01 1.395406007766723633e+00
2.023688793182373047e+00 -9.448750019073486328e-01 1.405425071716308594e+00
2.011010408401489258e+00 -1.057566642761230469e+00 1.413714528083801270e+00
2.029764413833618164e+00 -1.207016468048095703e+00 1.428373098373413086e+00
2.030392646789550781e+00 -1.344714879989624023e+00 1.440163016319274902e+00
2.032496452331542969e+00 -1.490562438964843750e+00 1.452798962593078613e+00
2.034706354141235352e+00 -1.643640995025634766e+00 1.466061592102050781e+00
1.939157962799072266e+00 -1.682433843612670898e+00 1.459518909454345703e+00
1.818127632141113281e+00 -1.684179544448852539e+00 1.447195410728454590e+00
1.702069282531738281e+00 -1.685480594635009766e+00 1.435346603393554688e+00
1.604699850082397461e+00 -1.706518173217773438e+00 1.427103996276855469e+00
1.741058826446533203e+00 -2.075659275054931641e+00 1.472588777542114258e+00
1.626522779464721680e+00 -2.076421976089477539e+00 1.460850954055786133e+00
1.737673759460449219e+00 -2.445439338684082031e+00 1.503727436065673828e+00
1.621736526489257812e+00 -2.446637153625488281e+00 1.491882085800170898e+00
1.648002147674560547e+00 -2.701160430908203125e+00 1.516261935234069824e+00
1.585054159164428711e+00 -2.801070213317871094e+00 1.518282771110534668e+00
1.761580467224121094e+00 -3.390180110931396484e+00 1.586637496948242188e+00
1.906229257583618164e+00 -3.964526176452636719e+00 1.650449991226196289e+00
1.584737062454223633e+00 -3.537497043609619141e+00 1.580958366394042969e+00
1.467898607254028320e+00 -3.540133953094482422e+00 1.569142699241638184e+00
1.370212793350219727e+00 -3.580873966217041016e+00 1.562545299530029297e+00
1.269284009933471680e+00 -3.607215404510498047e+00 1.554387807846069336e+00
1.203842163085937500e+00 -3.725966930389404297e+00 1.557755947113037109e+00
1.134305000305175781e+00 -3.836009025573730469e+00 1.559960365295410156e+00
1.055342435836791992e+00 -3.918684959411621094e+00 1.558863401412963867e+00
8.420664668083190918e-01 -3.548387527465820312e+00 1.505354166030883789e+00
7.862058281898498535e-01 -3.682424545288085938e+00 1.511011242866516113e+00
7.196944355964660645e-01 -3.782627105712890625e+00 1.512689828872680664e+00
6.765075325965881348e-01 -3.980607032775878906e+00 1.525097846984863281e+00
5.847753882408142090e-01 -3.982089996337890625e+00 1.515771150588989258e+00
4.122117161750793457e-01 -3.589215278625488281e+00 1.464534521102905273e+00
3.716822266578674316e-01 -3.793479442596435547e+00 1.477751493453979492e+00
2.669798135757446289e-01 -3.664659500122070312e+00 1.455992937088012695e+00
1.830076575279235840e-01 -3.623721599578857422e+00 1.443853616714477539e+00
1.041737794876098633e-01 -3.594617366790771484e+00 1.433251619338989258e+00
2.721422910690307617e-02 -3.558311939239501953e+00 1.422229528427124023e+00
1.141130924224853516e-02 -3.988426685333251953e+00 1.457226037979125977e+00
-6.168109178543090820e-02 -3.989888191223144531e+00 1.449818611145019531e+00
1.995942831039428711e+00 1.768123984336853027e+00 1.126352190971374512e+00
1.996318578720092773e+00 1.734111905097961426e+00 1.128764629364013672e+00
1.997264385223388672e+00 1.699326992034912109e+00 1.131279587745666504e+00
1.996320486068725586e+00 1.663651347160339355e+00 1.133696079254150391e+00
1.996853828430175781e+00 1.627178549766540527e+00 1.136294007301330566e+00
1.996886968612670898e+00 1.589818000793457031e+00 1.138911604881286621e+00
1.997354030609130859e+00 1.551545381546020508e+00 1.141629934310913086e+00
1.997244119644165039e+00 1.512337446212768555e+00 1.144364595413208008e+00
1.997486114501953125e+00 1.472144126892089844e+00 1.147198200225830078e+00
1.998529434204101562e+00 1.430885672569274902e+00 1.150174617767333984e+00
1.998369455337524414e+00 1.388636231422424316e+00 1.153117775917053223e+00
1.998423337936401367e+00 1.345282793045043945e+00 1.156156539916992188e+00
1.999115705490112305e+00 1.300726413726806641e+00 1.159333825111389160e+00
1.999420642852783203e+00 1.255017518997192383e+00 1.162558794021606445e+00
1.999760866165161133e+00 1.208068132400512695e+00 1.165873527526855469e+00
2.000550031661987305e+00 1.159759521484375000e+00 1.169321775436401367e+00
2.000763893127441406e+00 1.110196828842163086e+00 1.172808647155761719e+00
2.001290321350097656e+00 1.059180140495300293e+00 1.176424026489257812e+00
2.002047300338745117e+00 1.006650209426879883e+00 1.180164813995361328e+00
2.002476453781127930e+00 9.526619315147399902e-01 1.183979868888854980e+00
2.002970457077026367e+00 8.970677852630615234e-01 1.187912702560424805e+00
2.003907442092895508e+00 8.396870493888854980e-01 1.192008495330810547e+00
2.004252433776855469e+00 7.807275056838989258e-01 1.196164131164550781e+00
2.004842042922973633e+00 7.198781967163085938e-01 1.200472950935363770e+00
2.005566835403442383e+00 6.570755243301391602e-01 1.204930067062377930e+00
2.006773948669433594e+00 5.920912623405456543e-01 1.209580898284912109e+00
2.007424592971801758e+00 5.252046585083007812e-01 1.214317440986633301e+00
2.008314609527587891e+00 4.560195207595825195e-01 1.219235301017761230e+00
2.008861303329467773e+00 3.846690654754638672e-01 1.224275350570678711e+00
2.010264396667480469e+00 3.104947805404663086e-01 1.229586124420166016e+00
2.011480331420898438e+00 2.338253259658813477e-01 1.235055446624755859e+00
2.011949539184570312e+00 1.548398733139038086e-01 1.240623354911804199e+00
2.013236284255981445e+00 7.258284091949462891e-02 1.246489763259887695e+00
2.014730691909790039e+00 -1.281261444091796875e-02 1.252593636512756348e+00
2.015840768814086914e+00 -1.011618375778198242e-01 1.258871436119079590e+00
2.016823530197143555e+00 -1.927741765975952148e-01 1.265366673469543457e+00
2.018684625625610352e+00 -2.885262966156005859e-01 1.272226572036743164e+00
2.020025730133056641e+00 -3.876967430114746094e-01 1.279281377792358398e+00
2.021431922912597656e+00 -4.909017086029052734e-01 1.286624073982238770e+00
2.022694587707519531e+00 -5.982215404510498047e-01 1.294242620468139648e+00
2.023966789245605469e+00 -7.100300788879394531e-01 1.302175998687744141e+00
2.025745868682861328e+00 -8.270542621612548828e-01 1.310517549514770508e+00
2.027396202087402344e+00 -9.490737915039062500e-01 1.319197893142700195e+00
2.028672456741333008e+00 -1.076166391372680664e+00 1.328201293945312500e+00
2.030345916748046875e+00 -1.209438800811767578e+00 1.337671041488647461e+00
2.031436920166015625e+00 -1.348289489746093750e+00 1.347481727600097656e+00
2.033301830291748047e+00 -1.494602203369140625e+00 1.357880353927612305e+00
2.035240411758422852e+00 -1.648147344589233398e+00 1.368791580200195312e+00
1.936178445816040039e+00 -1.683231830596923828e+00 1.362808704376220703e+00
1.814717292785644531e+00 -1.684841871261596680e+00 1.352574825286865234e+00
1.698250055313110352e+00 -1.685981273651123047e+00 1.342733621597290039e+00
1.605491876602172852e+00 -1.714083433151245117e+00 1.336799025535583496e+00
1.736242294311523438e+00 -2.076226949691772461e+00 1.373281717300415039e+00
1.621837854385375977e+00 -2.077574491500854492e+00 1.363630771636962891e+00
1.691338300704956055e+00 -2.378354549407958984e+00 1.390601515769958496e+00
1.617850065231323242e+00 -2.450985908508300781e+00 1.389424681663513184e+00
1.635831117630004883e+00 -2.691526889801025391e+00 1.407791018486022949e+00
1.571404695510864258e+00 -2.788711071014404297e+00 1.409104466438293457e+00
1.846856832504272461e+00 -3.581608295440673828e+00 1.488060116767883301e+00
1.896992683410644531e+00 -3.965252399444580078e+00 1.519180536270141602e+00
1.591009378433227539e+00 -3.572092533111572266e+00 1.465600371360778809e+00
1.490429401397705078e+00 -3.615859985351562500e+00 1.460095882415771484e+00
1.353442192077636719e+00 -3.561976432800292969e+00 1.444655895233154297e+00
1.242709159851074219e+00 -3.561422824859619141e+00 1.435184478759765625e+00
1.220526933670043945e+00 -3.800751686096191406e+00 1.450044631958007812e+00
1.041988611221313477e+00 -3.589191913604736328e+00 1.420030117034912109e+00
9.557020068168640137e-01 -3.634025573730468750e+00 1.415817499160766602e+00
8.326411843299865723e-01 -3.549045085906982422e+00 1.399387478828430176e+00
7.507318854331970215e-01 -3.590208053588867188e+00 1.395291090011596680e+00
6.595565676689147949e-01 -3.590012550354003906e+00 1.387510776519775391e+00
6.082862019538879395e-01 -3.742803573608398438e+00 1.393836855888366699e+00
4.997879862785339355e-01 -3.652821540832519531e+00 1.378297090530395508e+00
4.128759503364562988e-01 -3.639392852783203125e+00 1.369953870773315430e+00
3.288772702217102051e-01 -3.626078128814697266e+00 1.361866831779479980e+00
2.523180246353149414e-01 -3.638864040374755859e+00 1.356240153312683105e+00
1.706072092056274414e-01 -3.608930110931396484e+00 1.347184777259826660e+00
9.428596496582031250e-02 -3.594784736633300781e+00 1.339693546295166016e+00
2.036380767822265625e-02 -3.580244541168212891e+00 1.332378983497619629e+00
8.943080902099609375e-04 -3.989572048187255859e+00 1.359367847442626953e+00
-7.224571704864501953e-02 -3.990675926208496094e+00 1.353214740753173828e+00
1.996921539306640625e+00 1.773413777351379395e+00 1.080584287643432617e+00
1.996955156326293945e+00 1.739359021186828613e+00 1.082449436187744141e+00
1.996579885482788086e+00 1.704497337341308594e+00 1.084331393241882324e+00
1.997729063034057617e+00 1.668874382972717285e+00 1.086357235908508301e+00
1.997443437576293945e+00 1.632352232933044434e+00 1.088335990905761719e+00
1.997632741928100586e+00 1.594963192939758301e+00 1.090394020080566406e+00
1.998260498046875000e+00 1.556655645370483398e+00 1.092531800270080566e+00
1.997340679168701172e+00 1.517430305480957031e+00 1.094615697860717773e+00
1.877548217773437500e+00 1.482264041900634766e+00 1.088491916656494141e+00
1.482537269592285156e+00 1.465591669082641602e+00 1.062867522239685059e+00
1.998497724533081055e+00 1.393628954887390137e+00 1.101465940475463867e+00
1.998718023300170898e+00 1.350219964981079102e+00 1.103855371475219727e+00
1.999588489532470703e+00 1.305598616600036621e+00 1.106354832649230957e+00
2.000072240829467773e+00 1.259814023971557617e+00 1.108891844749450684e+00
2.000110149383544922e+00 1.212845563888549805e+00 1.111463785171508789e+00
2.000602006912231445e+00 1.164524078369140625e+00 1.114140272140502930e+00
2.001005649566650391e+00 1.114867091178894043e+00 1.116883754730224609e+00
2.001708030700683594e+00 1.063746809959411621e+00 1.119727373123168945e+00
2.002172231674194336e+00 1.011201977729797363e+00 1.122632980346679688e+00
2.002783536911010742e+00 9.570920467376708984e-01 1.125634074211120605e+00
2.003930091857910156e+00 9.012414216995239258e-01 1.128766417503356934e+00
2.004571437835693359e+00 8.438332676887512207e-01 1.131949901580810547e+00
2.004622697830200195e+00 7.848495244979858398e-01 1.135179996490478516e+00
2.005379438400268555e+00 7.238325476646423340e-01 1.138568758964538574e+00
2.006270885467529297e+00 6.608459949493408203e-01 1.142074227333068848e+00
2.007177591323852539e+00 5.958333015441894531e-01 1.145691633224487305e+00
2.007980108261108398e+00 5.287431478500366211e-01 1.149415612220764160e+00
2.009012937545776367e+00 4.593396186828613281e-01 1.153281688690185547e+00
2.009691476821899414e+00 3.877555131912231445e-01 1.157243132591247559e+00
2.010775327682495117e+00 3.135414123535156250e-01 1.161375761032104492e+00
2.011674880981445312e+00 2.368339300155639648e-01 1.165632367134094238e+00
2.013103961944580078e+00 1.571348905563354492e-01 1.170088291168212891e+00
2.014047622680664062e+00 7.482171058654785156e-02 1.174654483795166016e+00
2.015185117721557617e+00 -1.061880588531494141e-02 1.179404854774475098e+00
2.016763687133789062e+00 -9.952652454376220703e-02 1.184374451637268066e+00
2.017771005630493164e+00 -1.914581060409545898e-01 1.189471244812011719e+00
2.019248247146606445e+00 -2.872710227966308594e-01 1.194811820983886719e+00
2.020585775375366211e+00 -3.867788314819335938e-01 1.200345039367675781e+00
2.021964550018310547e+00 -4.903306961059570312e-01 1.206102371215820312e+00
2.023172616958618164e+00 -5.980038642883300781e-01 1.212073683738708496e+00
2.024744272232055664e+00 -7.104954719543457031e-01 1.218333005905151367e+00
2.026414632797241211e+00 -8.279011249542236328e-01 1.224867820739746094e+00
2.027933835983276367e+00 -9.503121376037597656e-01 1.231666207313537598e+00
2.029394388198852539e+00 -1.078138351440429688e+00 1.238756895065307617e+00
2.031550645828247070e+00 -1.212520122528076172e+00 1.246253013610839844e+00
2.032400369644165039e+00 -1.351799011230468750e+00 1.253929138183593750e+00
2.033351659774780273e+00 -1.497812509536743164e+00 1.261980652809143066e+00
2.036265850067138672e+00 -1.653275728225708008e+00 1.270680904388427734e+00
1.933073997497558594e+00 -1.683904647827148438e+00 1.265424013137817383e+00
1.811212778091430664e+00 -1.685414552688598633e+00 1.257320046424865723e+00
1.694939613342285156e+00 -1.687219619750976562e+00 1.249607682228088379e+00
1.648885965347290039e+00 -1.783300399780273438e+00 1.251769900321960449e+00
1.731292486190795898e+00 -2.076640367507934570e+00 1.273352742195129395e+00
1.617051124572753906e+00 -2.078618764877319336e+00 1.265786290168762207e+00
1.689728736877441406e+00 -2.385874271392822266e+00 1.287476778030395508e+00
1.614780664443969727e+00 -2.456857681274414062e+00 1.286324977874755859e+00
2.053862571716308594e+00 -3.478049278259277344e+00 1.371685266494750977e+00
1.808427333831787109e+00 -3.264435768127441406e+00 1.343511581420898438e+00
