1.976826906204223633e+00 1.672271132469177246e+00 1.954763174057006836e+00
1.978790760040283203e+00 1.533544898033142090e+00 2.002668380737304688e+00
1.981416463851928711e+00 1.381345987319946289e+00 2.055415630340576172e+00
1.985010862350463867e+00 1.213494777679443359e+00 2.113868713378906250e+00
1.990169525146484375e+00 1.027217388153076172e+00 2.179210186004638672e+00
1.996751308441162109e+00 8.191789388656616211e-01 2.252515077590942383e+00
2.005437135696411133e+00 5.849938392639160156e-01 2.335547447204589844e+00
2.016579151153564453e+00 3.191348314285278320e-01 2.430326461791992188e+00
2.029964923858642578e+00 1.481997966766357422e-02 2.539069414138793945e+00
2.045624017715454102e+00 -3.367670774459838867e-01 2.664782524108886719e+00
2.063628911972045898e+00 -7.471995353698730469e-01 2.811426162719726562e+00
2.083657026290893555e+00 -1.231527805328369141e+00 2.983980655670166016e+00
2.065939426422119141e+00 -1.762056112289428711e+00 3.157020330429077148e+00
1.825920343399047852e+00 -2.070236206054687500e+00 3.164997577667236328e+00
1.558423042297363281e+00 -2.335960626602172852e+00 3.147486925125122070e+00
1.181235551834106445e+00 -2.357316017150878906e+00 3.002797603607177734e+00
8.492657542228698730e-01 -2.375000476837158203e+00 2.875076770782470703e+00
6.246973872184753418e-01 -2.613348960876464844e+00 2.865561485290527344e+00
4.100689291954040527e-01 -2.881850719451904297e+00 2.870291471481323242e+00
1.938393712043762207e-01 -3.149508476257324219e+00 2.874089479446411133e+00
1.978355884552001953e+00 1.691639184951782227e+00 1.785827517509460449e+00
1.944324493408203125e+00 1.553069472312927246e+00 1.813893079757690430e+00
1.958252429962158203e+00 1.401624083518981934e+00 1.861926794052124023e+00
1.949949026107788086e+00 1.236238956451416016e+00 1.906396746635437012e+00
1.953541994094848633e+00 1.051902890205383301e+00 1.960325360298156738e+00
1.998440504074096680e+00 8.347902297973632812e-01 2.037652969360351562e+00
2.007802486419677734e+00 5.986840128898620605e-01 2.108343839645385742e+00
2.019290447235107422e+00 3.303706645965576172e-01 2.188965797424316406e+00
2.033304691314697266e+00 2.259922027587890625e-02 2.281728267669677734e+00
2.049947977066040039e+00 -3.339051008224487305e-01 2.389317989349365234e+00
2.069243907928466797e+00 -7.512784004211425781e-01 2.515213012695312500e+00
2.090703487396240234e+00 -1.245244741439819336e+00 2.663743972778320312e+00
2.115292072296142578e+00 -1.838901519775390625e+00 2.841842651367187500e+00
1.976669073104858398e+00 -2.319436788558959961e+00 2.932170629501342773e+00
1.657424211502075195e+00 -2.552341461181640625e+00 2.890354871749877930e+00
1.400688648223876953e+00 -2.882758140563964844e+00 2.897648811340332031e+00
1.140511512756347656e+00 -3.212304115295410156e+00 2.903525352478027344e+00
8.778917193412780762e-01 -3.541727066040039062e+00 2.908536911010742188e+00
6.126609444618225098e-01 -3.868456363677978516e+00 2.911891698837280273e+00
2.945484519004821777e-01 -3.905860900878906250e+00 2.814559936523437500e+00
1.980018377304077148e+00 1.711349964141845703e+00 1.613972187042236328e+00
1.938672542572021484e+00 1.572219371795654297e+00 1.634717464447021484e+00
1.961208581924438477e+00 1.420227169990539551e+00 1.675964832305908203e+00
1.965053558349609375e+00 1.252444505691528320e+00 1.715723872184753418e+00
1.969636440277099609e+00 1.066036939620971680e+00 1.759981989860534668e+00
2.001157760620117188e+00 8.504748940467834473e-01 1.818359613418579102e+00
1.974495649337768555e+00 6.256611943244934082e-01 1.862900972366333008e+00
1.985778570175170898e+00 3.586314916610717773e-01 1.927595853805541992e+00
1.995488882064819336e+00 5.423176288604736328e-02 2.000479698181152344e+00
2.055865526199340820e+00 -3.319822549819946289e-01 2.106143474578857422e+00
2.076688528060913086e+00 -7.568891048431396484e-01 2.209875822067260742e+00
2.098965644836425781e+00 -1.260446786880493164e+00 2.332150459289550781e+00
2.124731063842773438e+00 -1.867797613143920898e+00 2.479325294494628906e+00
2.154300451278686523e+00 -2.612956047058105469e+00 2.659333705902099609e+00
2.186679840087890625e+00 -3.543499469757080078e+00 2.882877349853515625e+00
1.807914972305297852e+00 -3.832849979400634766e+00 2.845657348632812500e+00
1.348834037780761719e+00 -3.859778881072998047e+00 2.725856304168701172e+00
9.428915381431579590e-01 -3.883469581604003906e+00 2.619894504547119141e+00
5.809255242347717285e-01 -3.902465820312500000e+00 2.524920701980590820e+00
2.567631602287292480e-01 -3.919378280639648438e+00 2.439842939376831055e+00
1.982280492782592773e+00 1.731439709663391113e+00 1.439190030097961426e+00
1.949582576751708984e+00 1.591622829437255859e+00 1.456702947616577148e+00
1.943501710891723633e+00 1.440389394760131836e+00 1.481721401214599609e+00
1.958014011383056641e+00 1.271872401237487793e+00 1.514015197753906250e+00
1.960392236709594727e+00 1.085566043853759766e+00 1.546882987022399902e+00
2.005845546722412109e+00 8.660100102424621582e-01 1.594464540481567383e+00
1.970773696899414062e+00 6.420319080352783203e-01 1.626109600067138672e+00
2.006380558013916016e+00 3.621795177459716797e-01 1.682126283645629883e+00
2.009214401245117188e+00 5.649137496948242188e-02 1.735833644866943359e+00
2.019955635070800781e+00 -3.006254434585571289e-01 1.800118207931518555e+00
2.061143159866333008e+00 -7.429409027099609375e-01 1.885523557662963867e+00
2.109737873077392578e+00 -1.278483629226684570e+00 1.988665938377380371e+00
2.136412382125854492e+00 -1.900196790695190430e+00 2.102234601974487305e+00
2.166869401931762695e+00 -2.665566444396972656e+00 2.241551399230957031e+00
2.200678110122680664e+00 -3.626303195953369141e+00 2.415512561798095703e+00
1.778928279876708984e+00 -3.849311828613281250e+00 2.366773605346679688e+00
1.316848039627075195e+00 -3.877440452575683594e+00 2.275804042816162109e+00
9.077698588371276855e-01 -3.899339675903320312e+00 2.194747209548950195e+00
5.439729094505310059e-01 -3.918168544769287109e+00 2.122550010681152344e+00
2.183439731597900391e-01 -3.933945655822753906e+00 2.057740688323974609e+00
1.986592769622802734e+00 1.752018332481384277e+00 1.261476278305053711e+00
1.989184856414794922e+00 1.611757636070251465e+00 1.277984380722045898e+00
1.991804122924804688e+00 1.457362532615661621e+00 1.296123743057250977e+00
1.996665239334106445e+00 1.286377787590026855e+00 1.316483259201049805e+00
2.003248691558837891e+00 1.095743060111999512e+00 1.339343786239624023e+00
2.011996746063232422e+00 8.815787434577941895e-01 1.365212798118591309e+00
2.023526430130004883e+00 6.388623714447021484e-01 1.394754290580749512e+00
2.037392377853393555e+00 3.615460395812988281e-01 1.428602814674377441e+00
2.054006576538085938e+00 4.155004024505615234e-02 1.467745780944824219e+00
2.074764966964721680e+00 -3.324704170227050781e-01 1.513682365417480469e+00
2.053394317626953125e+00 -7.356011867523193359e-01 1.557141184806823730e+00
2.122095346450805664e+00 -1.298435688018798828e+00 1.631451845169067383e+00
1.862341165542602539e+00 -1.577971220016479492e+00 1.627693414688110352e+00
1.885727643966674805e+00 -2.277863979339599609e+00 1.711514353752136230e+00
2.217173099517822266e+00 -3.716818332672119141e+00 1.923057556152343750e+00
1.617478132247924805e+00 -3.570931911468505859e+00 1.823277235031127930e+00
1.132272481918334961e+00 -3.472616195678710938e+00 1.744816780090332031e+00
8.032103180885314941e-01 -3.672847270965576172e+00 1.722336888313293457e+00
4.324807524681091309e-01 -3.592240810394287109e+00 1.661756277084350586e+00
1.384639739990234375e-01 -3.688075542449951172e+00 1.632105588912963867e+00
1.991086959838867188e+00 1.773015141487121582e+00 1.080214142799377441e+00
1.994525432586669922e+00 1.632306456565856934e+00 1.088142395019531250e+00
1.997759580612182617e+00 1.477199912071228027e+00 1.096844673156738281e+00
2.003463745117187500e+00 1.305187702178955078e+00 1.106637597084045410e+00
2.010589122772216797e+00 1.113170981407165527e+00 1.117620348930358887e+00
2.020431756973266602e+00 8.970129489898681641e-01 1.130106329917907715e+00
2.032492399215698242e+00 6.517904996871948242e-01 1.144331097602844238e+00
2.047020196914672852e+00 3.710970878601074219e-01 1.160662174224853516e+00
2.065373897552490234e+00 4.600250720977783203e-02 1.179679036140441895e+00
2.086781978607177734e+00 -3.341610431671142578e-01 1.201913714408874512e+00
2.110772371292114258e+00 -7.835428714752197266e-01 1.228108286857604980e+00
2.136845827102661133e+00 -1.321163177490234375e+00 1.259269833564758301e+00
1.857718229293823242e+00 -1.589658975601196289e+00 1.255206108093261719e+00
1.911215066909790039e+00 -2.349704027175903320e+00 1.300377368927001953e+00
2.066817998886108398e+00 -3.502025127410888672e+00 1.373867154121398926e+00
1.648284435272216797e+00 -3.723220825195312500e+00 1.357850790023803711e+00
1.250150442123413086e+00 -3.913249015808105469e+00 1.341499805450439453e+00
8.358942866325378418e-01 -3.935208320617675781e+00 1.314871668815612793e+00
4.679372906684875488e-01 -3.952229976654052734e+00 1.291083812713623047e+00
1.394622325897216797e-01 -3.966414928436279297e+00 1.269793033599853516e+00
1.996825933456420898e+00 1.794525623321533203e+00 8.952701091766357422e-01
2.000925302505493164e+00 1.653324007987976074e+00 8.941687941551208496e-01
1.497437715530395508e+00 1.514958381652832031e+00 8.962569832801818848e-01
2.011520624160766602e+00 1.324355363845825195e+00 8.915964365005493164e-01
2.019538879394531250e+00 1.130815267562866211e+00 8.900719285011291504e-01
1.780982494354248047e+00 9.748089909553527832e-01 8.903722763061523438e-01
1.731097459793090820e+00 7.705025672912597656e-01 8.891270756721496582e-01
1.750376701354980469e+00 5.161716938018798828e-01 8.870691657066345215e-01
1.725638389587402344e+00 2.465500831604003906e-01 8.851694464683532715e-01
1.790629625320434570e+00 -1.223982572555541992e-01 8.819530010223388672e-01
1.721354722976684570e+00 -4.521794319152832031e-01 8.798729181289672852e-01
1.989163637161254883e+00 -1.176179647445678711e+00 8.726857304573059082e-01
1.854218006134033203e+00 -1.603343009948730469e+00 8.702736496925354004e-01
1.847875118255615234e+00 -2.287595510482788086e+00 8.651002049446105957e-01
2.052968025207519531e+00 -3.539049625396728516e+00 8.542860746383666992e-01
9.532132744789123535e-01 -2.201802253723144531e+00 8.713375926017761230e-01
6.974757313728332520e-01 -2.426465511322021484e+00 8.712220191955566406e-01
7.067669034004211426e-01 -3.610403060913085938e+00 8.621442317962646484e-01
3.646238446235656738e-01 -3.650268554687500000e+00 8.639758825302124023e-01
9.854775667190551758e-02 -3.981750011444091797e+00 8.631111383438110352e-01
2.004502058029174805e+00 1.816648483276367188e+00 7.062357068061828613e-01
2.008448839187622070e+00 1.674849390983581543e+00 6.957141160964965820e-01
1.471885919570922852e+00 1.532633304595947266e+00 7.294795513153076172e-01
2.020517110824584961e+00 1.343952298164367676e+00 6.709270477294921875e-01
2.030003786087036133e+00 1.148741245269775391e+00 6.561099290847778320e-01
1.167548656463623047e+00 1.140528440475463867e+00 7.262328863143920898e-01
1.669180631637573242e+00 8.060951828956604004e-01 6.610516309738159180e-01
1.701676607131958008e+00 5.504022836685180664e-01 6.399982571601867676e-01
1.709618091583251953e+00 2.654651403427124023e-01 6.188548803329467773e-01
1.706537246704101562e+00 -5.811822414398193359e-02 5.958359241485595703e-01
1.504081726074218750e+00 -2.670927047729492188e-01 5.974063277244567871e-01
1.306180238723754883e+00 -4.752857685089111328e-01 5.986595153808593750e-01
1.173297882080078125e+00 -7.606098651885986328e-01 5.890346765518188477e-01
1.585972309112548828e-01 2.870585918426513672e-01 7.475776672363281250e-01
9.775454401969909668e-01 -1.564090728759765625e+00 5.472995638847351074e-01
7.009213566780090332e-01 -1.672669887542724609e+00 5.621713399887084961e-01
4.636922478675842285e-01 -1.822431325912475586e+00 5.708514451980590820e-01
2.465122342109680176e-01 -1.994490385055541992e+00 5.762840509414672852e-01
3.238326907157897949e-01 -3.652283668518066406e+00 4.507186412811279297e-01
5.672550201416015625e-02 -3.997115612030029297e+00 4.478192329406738281e-01
2.011999845504760742e+00 1.839247465133666992e+00 5.129061341285705566e-01
1.811882972717285156e+00 1.688817620277404785e+00 5.241583585739135742e-01
1.514378786087036133e+00 1.548946619033813477e+00 5.524705648422241211e-01
1.470629692077636719e+00 1.410651683807373047e+00 5.403534173965454102e-01
1.739628314971923828e+00 1.213926672935485840e+00 4.700589478015899658e-01
1.184741258621215820e+00 1.149377107620239258e+00 5.500159263610839844e-01
1.182878255844116211e+00 9.799286723136901855e-01 5.268810391426086426e-01
1.116953134536743164e+00 8.150411248207092285e-01 5.146386027336120605e-01
1.123369455337524414e+00 5.975592732429504395e-01 4.835349023342132568e-01
1.147234678268432617e+00 3.322144746780395508e-01 4.430171549320220947e-01
1.192810773849487305e+00 -2.389192581176757812e-03 3.894438147544860840e-01
5.183994174003601074e-01 3.384134769439697266e-01 5.446033477783203125e-01
4.082854390144348145e-01 1.988784074783325195e-01 5.429452657699584961e-01
1.339440941810607910e-01 3.131930828094482422e-01 6.026988625526428223e-01
1.074243187904357910e-01 6.703162193298339844e-02 5.729048252105712891e-01
-8.427619934082031250e-03 -3.073441982269287109e-02 5.779421925544738770e-01
-4.477089643478393555e-02 -3.563431501388549805e-01 5.387348532676696777e-01
-1.600894927978515625e-01 -4.929041862487792969e-01 5.383217334747314453e-01
1.455391049385070801e-01 -2.912550926208496094e+00 1.547485589981079102e-01
-8.900916576385498047e-02 -3.186817169189453125e+00 1.543906331062316895e-01
2.017437458038330078e+00 1.862141370773315430e+00 3.156226873397827148e-01
1.188080549240112305e+00 1.679566144943237305e+00 4.776823222637176514e-01
1.193229198455810547e+00 1.570155858993530273e+00 4.538114964962005615e-01
1.199196338653564453e+00 1.448104023933410645e+00 4.271286129951477051e-01
1.206907749176025391e+00 1.310923218727111816e+00 3.968962430953979492e-01
1.247167348861694336e+00 1.148417711257934570e+00 3.535835742950439453e-01
1.178087472915649414e+00 9.935932159423828125e-01 3.382036685943603516e-01
1.186035394668579102e+00 7.958324551582336426e-01 2.953839898109436035e-01
1.195337533950805664e+00 5.663261413574218750e-01 2.456717491149902344e-01
4.828103184700012207e-01 7.916078567504882812e-01 4.639436900615692139e-01
2.652515172958374023e-01 7.846736311912536621e-01 5.149275660514831543e-01
1.727387905120849609e-01 6.954037547111511230e-01 5.187528133392333984e-01
6.143915653228759766e-02 6.344096064567565918e-01 5.329531431198120117e-01
1.188504695892333984e-02 4.929465055465698242e-01 5.156323909759521484e-01
-7.010954618453979492e-02 3.921319246292114258e-01 5.145355463027954102e-01
-1.528142094612121582e-01 2.917237281799316406e-01 5.136938095092773438e-01
-8.033394813537597656e-03 -5.186491012573242188e-01 3.111934065818786621e-01
-1.341986060142517090e-01 -6.678922176361083984e-01 3.107219934463500977e-01
-1.139688491821289062e-01 -1.647940874099731445e+00 1.031349897384643555e-01
-2.841121852397918701e-01 -1.846293449401855469e+00 1.031017303466796875e-01
2.011818408966064453e+00 1.884310126304626465e+00 1.173734068870544434e-01
1.194523811340332031e+00 1.695594191551208496e+00 3.300887942314147949e-01
1.200273513793945312e+00 1.585613846778869629e+00 2.976852655410766602e-01
1.206801414489746094e+00 1.462733268737792969e+00 2.614473104476928711e-01
1.215378761291503906e+00 1.324361324310302734e+00 2.202429175376892090e-01
1.400397062301635742e+00 1.128568410873413086e+00 1.058600544929504395e-01
1.277161359786987305e+00 9.749155640602111816e-01 1.031706333160400391e-01
1.091728448867797852e+00 8.461183309555053711e-01 1.275585293769836426e-01
9.709123969078063965e-01 6.960346102714538574e-01 1.250752210617065430e-01
4.909257292747497559e-01 7.893337011337280273e-01 3.066811561584472656e-01
4.074715971946716309e-01 6.644517779350280762e-01 2.990761399269104004e-01
3.136214017868041992e-01 5.452286005020141602e-01 2.964146137237548828e-01
-4.575216770172119141e-02 7.664030790328979492e-01 4.744031429290771484e-01
-1.496691107749938965e-01 7.388598322868347168e-01 5.004640817642211914e-01
-1.977093815803527832e-01 6.273058056831359863e-01 4.850721061229705811e-01
-7.286775112152099609e-02 6.786882877349853516e-02 2.892358899116516113e-01
-1.716991066932678223e-01 -4.973626136779785156e-02 2.886394858360290527e-01
-1.487484574317932129e-01 -6.847221851348876953e-01 1.048771739006042480e-01
-2.769894301891326904e-01 -8.369185924530029297e-01 1.042156815528869629e-01
-4.052111804485321045e-01 -9.903218746185302734e-01 1.032129526138305664e-01
1.525982141494750977e+00 1.850289344787597656e+00 9.384006261825561523e-02
1.200930356979370117e+00 1.712018609046936035e+00 1.788045763969421387e-01
1.207279205322265625e+00 1.601490497589111328e+00 1.374127268791198730e-01
1.212888717651367188e+00 1.477887392044067383e+00 9.173631668090820312e-02
1.056461572647094727e+00 1.360347151756286621e+00 1.147287487983703613e-01
9.625322222709655762e-01 1.237783908843994141e+00 1.102935075759887695e-01
8.588252663612365723e-01 1.116631746292114258e+00 1.103685498237609863e-01
7.581134438514709473e-01 9.943888187408447266e-01 1.088309288024902344e-01
6.663543581962585449e-01 8.667988777160644531e-01 1.017405390739440918e-01
4.993607401847839355e-01 7.869893908500671387e-01 1.423119902610778809e-01
4.703304171562194824e-01 6.115733385086059570e-01 9.267932176589965820e-02
1.231148838996887207e-01 7.419561743736267090e-01 2.810168862342834473e-01
4.479229450225830078e-02 6.433857679367065430e-01 2.785918116569519043e-01
-1.010029315948486328e-01 6.517047882080078125e-01 3.413825035095214844e-01
-1.150520443916320801e-01 4.472546577453613281e-01 2.754096388816833496e-01
-1.839101910591125488e-01 3.191547393798828125e-01 2.587358951568603516e-01
-1.572820544242858887e-01 -1.411635875701904297e-01 8.627367019653320312e-02
-2.611794471740722656e-01 -2.736269235610961914e-01 8.245790004730224609e-02
-3.664085865020751953e-01 -4.044786691665649414e-01 7.975447177886962891e-02
-4.730419218540191650e-01 -5.281989574432373047e-01 8.013010025024414062e-02
1.178898096084594727e+00 1.825729250907897949e+00 7.926809787750244141e-02
1.091774463653564453e+00 1.720384597778320312e+00 7.787507772445678711e-02
1.004850864410400391e+00 1.614755034446716309e+00 7.626038789749145508e-02
9.180054068565368652e-01 1.508759021759033203e+00 7.445031404495239258e-02
8.314631581306457520e-01 1.402286648750305176e+00 7.228553295135498047e-02
6.916870474815368652e-01 1.306225299835205078e+00 1.011741757392883301e-01
6.078321337699890137e-01 1.202665090560913086e+00 9.890842437744140625e-02
5.270263552665710449e-01 1.097172856330871582e+00 9.429419040679931641e-02
4.453105330467224121e-01 9.905554056167602539e-01 8.965456485748291016e-02
3.614025712013244629e-01 8.836650848388671875e-01 8.599454164505004883e-02
2.752092480659484863e-01 7.772218585014343262e-01 8.366769552230834961e-02
1.882581710815429688e-01 6.705773472785949707e-01 8.163380622863769531e-02
2.404683828353881836e-02 6.639340519905090332e-01 1.608886718750000000e-01
-1.713466644287109375e-01 7.558229565620422363e-01 2.977712154388427734e-01
-1.045020222663879395e-01 4.082107543945312500e-01 1.160436868667602539e-01
-1.626412868499755859e-01 2.375156879425048828e-01 7.227897644042968750e-02
-2.514784634113311768e-01 1.278865337371826172e-01 6.991451978683471680e-02
-3.404701054096221924e-01 1.635086536407470703e-02 6.681376695632934570e-02
-4.311967492103576660e-01 -8.847379684448242188e-02 6.744372844696044922e-02
-5.220941901206970215e-01 -1.891524791717529297e-01 6.992793083190917969e-02
9.234337210655212402e-01 1.807737708091735840e+00 6.779366731643676758e-02
8.475112318992614746e-01 1.716033816337585449e+00 6.644374132156372070e-02
7.719778418540954590e-01 1.624096035957336426e+00 6.474518775939941406e-02
6.964130997657775879e-01 1.531824350357055664e+00 6.289660930633544922e-02
6.215735077857971191e-01 1.439077615737915039e+00 6.037861108779907227e-02
5.025365948677062988e-01 1.354517698287963867e+00 8.817243576049804688e-02
4.304155707359313965e-01 1.263843178749084473e+00 8.509093523025512695e-02
3.571400046348571777e-01 1.172792673110961914e+00 8.250331878662109375e-02
2.833203077316284180e-01 1.081279158592224121e+00 8.000409603118896484e-02
2.080953121185302734e-01 9.899277091026306152e-01 7.841908931732177734e-02
1.333656907081604004e-01 8.976427316665649414e-01 7.606911659240722656e-02
5.895197391510009766e-02 8.041408658027648926e-01 7.291752099990844727e-02
-1.631057262420654297e-02 7.104021906852722168e-01 7.014894485473632812e-02
-1.765985488891601562e-01 7.550562024116516113e-01 1.876371502876281738e-01
-1.665044426918029785e-01 5.176419019699096680e-01 6.174755096435546875e-02
-2.436028420925140381e-01 4.223387241363525391e-01 5.927616357803344727e-02
-3.219388425350189209e-01 3.293985128402709961e-01 5.873125791549682617e-02
-4.012488424777984619e-01 2.407326698303222656e-01 6.092202663421630859e-02
-4.793852567672729492e-01 1.474597454071044922e-01 6.009089946746826172e-02
-5.579583644866943359e-01 5.795431137084960938e-02 6.142133474349975586e-02
7.269713282585144043e-01 1.793936848640441895e+00 5.865949392318725586e-02
6.598075032234191895e-01 1.712733745574951172e+00 5.725681781768798828e-02
5.930700898170471191e-01 1.631318926811218262e+00 5.543661117553710938e-02
5.264341235160827637e-01 1.549580216407775879e+00 5.335682630538940430e-02
4.599449038505554199e-01 1.467432022094726562e+00 5.093586444854736328e-02
3.934097886085510254e-01 1.384797692298889160e+00 4.826164245605468750e-02
2.972658276557922363e-01 1.310021996498107910e+00 7.056403160095214844e-02
2.301324009895324707e-01 1.229538679122924805e+00 6.956237554550170898e-02
1.621003150939941406e-01 1.149298906326293945e+00 6.932181119918823242e-02
9.396773576736450195e-02 1.069110035896301270e+00 6.918019056320190430e-02
2.685314416885375977e-02 9.880744814872741699e-01 6.784188747406005859e-02
-3.871732950210571289e-02 9.049838185310363770e-01 6.423634290695190430e-02
-1.049731969833374023e-01 8.214167952537536621e-01 6.082308292388916016e-02
-1.824027895927429199e-01 7.549439072608947754e-01 7.511872053146362305e-02
-2.385729253292083740e-01 6.514335274696350098e-01 5.307459831237792969e-02
-3.066092729568481445e-01 5.663156509399414062e-01 4.997700452804565430e-02
-3.760666847229003906e-01 4.840509891510009766e-01 4.952985048294067383e-02
-4.464069008827209473e-01 4.059164524078369141e-01 5.211138725280761719e-02
-5.164386034011840820e-01 3.293533325195312500e-01 5.540198087692260742e-02
-5.856803655624389648e-01 2.503743171691894531e-01 5.673271417617797852e-02
