65504 65504 65504 65504 65504 65504 65504 65504 65504 65504 65504 65504 65504 65504 65504 65504 65504 65504 65504 65504 65504 65504 65504 65504 65504 65504 65504 65504 65504 65504 65504 65504 65504 65504 65504 65504 65504 65504 65504 65504 65504 65504 65504 65504 65504 65504 65504 65504 65504 65504 65504 65504 65504 65504 65504 65504 65504 65504 65504 65504 65504 65504 65504 65504 65504 65504 65504 65504 65504 65504 65504 65504 65504 65504 65504 65504 65504 65504 65504 65504 65504 65504 65504 65504 65504 65504 65504 65504 65504 65504 65504 65504 65504 65504 65504 65504 65504 65504 65504 65504 65504 65504 65504 65504 65504 65504 65504 65504 65504 65504 65504 65504 65504 65504 25.6719 25.6406 25.625 25.5938 25.5781 25.5469 25.5313 25.5 25.4844 25.4531 25.4375 25.4219 25.3906 25.3906 25.4375 25.4063 25.3906 25.375 25.3438 25.3281 25.3125 25.2813 25.2656 25.25 25.2344 25.2031 25.1875 25.1719 25.1563 25.125 25.0313 25.0156 24.9844 24.9688 24.9531 24.9375 24.9219 24.8906 24.875 24.8594 24.9219 24.9063 24.8906 24.875 24.8594 24.8438 24.8281 24.8125 24.7969 24.7813 24.7656 24.75 24.7344 24.7188 24.7031 24.6875 24.6719 24.5781 24.5625 24.5469 24.5313 24.5156 24.5 24.4844 24.4688 24.4531 24.4375 24.4375 24.4219 24.5625 24.5469 24.5313 24.5156 24.5 24.5 24.4844 24.4688 24.4531 24.4531 24.4375 24.4219 24.4219 24.4063 24.3906 24.3906 24.375 24.3594 24.3594 24.3438 24.3281 24.3281 24.3125 24.3125 24.2969 24.2969 24.2813 24.2813 24.2656 24.2656 24.25 24.25 24.2344 24.2344 24.2188 24.2188 24.2031 24.2031 24.2031 24.1875 24.1875 24.1875 24.1719 24.1719 24.1719 24.1563 24.1563 24.1563 24.1406 24.1406 24.1406 24.1406 24.125 24.125 24.125 24.125 24.125 24.1094 24.1094 24.1094 23.9531 23.9531 23.9531 23.9531 23.9531 23.9531 23.9531 23.9531 23.9531 23.9531 23.9531 23.9531 23.9531 24.0313 24.0313 24.0313 24.0313 24.0313 24.0313 24.0313 24.0313 24.0313 24.0313 24.0469 24.0469 24.0469 24.0469 24.0469 24.0469 23.9844 23.9844 23.9844 23.9844 23.9844 24 24 24 24.0156 24.0938 24.0938 24.1094 24.1094 24.1094 24.125 24.125 24.1406 24.1406 24.1406 24.1563 24.1563 24.1719 24.1719 24.1875 24.1875 24.1094 24.125 24.125 24.1406 24.1563 24.1563 24.1719 24.1719 24.1875 24.1875 24.2031 24.2188 24.3125 24.3125 24.3281 24.3281 24.3438 24.3594 24.375 24.375 24.3906 24.4063 24.4219 24.4219 24.4375 24.4531 24.4688 24.4688 24.4844 24.4219 24.4375 24.4531 24.4688 24.4688 24.4844 24.5 24.5156 24.5313 24.9844 25 25.0156 25.0313 25.0469 25.0625 25.0781 25.0938 25.1094 25.125 25.1406 25.1563 25.1719 25.1875 25.1563 24.9063 24.7969 24.8281 24.8438 24.8594 24.875 24.8906 24.9063 24.9375 24.9531 24.9688 24.9844 25 25.1875 25.2031 25.2188 25.2344 25.2656 25.2813 25.2969 25.3281 25.3438 25.3594 25.3906 25.4063 25.4219 25.4531 25.4688 25.5 25.5156 25.5313 25.5625 25.5781 25.6094 25.625 25.6563 25.6719 25.7031 25.7188 25.75 25.7656 25.7969 25.8125 25.8438 25.875 25.8906 25.9219 25.9375 25.9688 26 26.0156 26.0469 26.0781 26.0938 26.125 26.1563 26.1719 26.2031 26.2344 26.25 26.2813 26.3125 26.3438 26.3594 26.3906 26.4219 26.4531 26.4688 26.5 26.5313 26.5625 26.5938 26.4531 26.4844 26.5156 26.5469 26.5781 26.5938 26.625 26.6563 26.6875 26.7188 26.75 26.7813 27.2969 27.3281
65504 65504 65504 65504 65504 65504 65504 65504 65504 65504 65504 65504 65504 65504 65504 65504 65504 65504 65504 65504 65504 65504 65504 65504 65504 65504 65504 65504 65504 65504 65504 65504 65504 65504 65504 65504 65504 65504 65504 65504 65504 65504 65504 65504 65504 65504 65504 65504 65504 65504 65504 65504 65504 65504 65504 65504 65504 65504 65504 65504 65504 65504 65504 65504 65504 65504 65504 65504 65504 65504 65504 65504 65504 65504 65504 65504 65504 65504 65504 65504 65504 65504 65504 65504 65504 65504 65504 65504 65504 65504 65504 65504 65504 65504 65504 65504 65504 65504 65504 65504 65504 65504 65504 65504 65504 65504 65504 65504 65504 65504 65504 65504 65504 65504 25.6406 25.625 25.5938 25.5781 25.5469 25.5313 25.5 25.4844 25.4531 25.4375 25.4219 25.3906 25.375 25.375 25.4688 25.4531 25.4375 25.4063 25.3906 25.3594 25.3438 25.3281 25.2969 25.2813 25.25 25.2344 25.2188 25.1875 25.1719 25.1563 25 24.9844 24.9688 24.9531 24.9219 24.9063 24.8906 24.875 24.8594 24.8438 24.8906 24.9219 24.9063 24.8906 24.875 24.8438 24.8281 24.8125 24.7969 24.7813 24.7656 24.75 24.7344 24.7188 24.7031 24.6875 24.6719 24.5469 24.5313 24.5156 24.5 24.4844 24.4688 24.4531 24.4531 24.4375 24.4219 24.4063 24.3906 24.5313 24.5156 24.5 24.5 24.4844 24.4688 24.4531 24.4531 24.4375 24.4219 24.4063 24.4063 24.3906 24.375 24.375 24.3594 24.3438 24.3438 24.3281 24.3125 24.3125 24.2969 24.2969 24.2813 24.2813 24.2656 24.25 24.25 24.2344 24.2344 24.2188 24.2188 24.2188 24.2031 24.2031 24.1875 24.1875 24.1719 24.1719 24.1719 24.1563 24.1563 24.1406 24.1406 24.1406 24.125 24.125 24.125 24.125 24.1094 24.1094 24.1094 24.1094 24.0938 24.0938 24.0938 24.0938 24.0938 24.0781 24.0781 23.9375 23.9375 23.9219 23.9219 23.9219 23.9219 23.9219 23.9219 23.9219 23.9219 23.9219 23.9219 23.9219 24 24 24 24 24 24 24 24.0156 24.0156 24.0156 24.0156 24.0156 24.0156 24.0156 24.0313 24.0313 23.9531 23.9531 23.9531 23.9688 23.9688 23.9688 23.9688 23.9844 23.9844 24.0625 24.0781 24.0781 24.0781 24.0938 24.0938 24.0938 24.1094 24.1094 24.125 24.125 24.1406 24.1406 24.1406 24.1563 24.1563 24.0938 24.0938 24.1094 24.1094 24.125 24.125 24.1406 24.1563 24.1563 24.1719 24.1719 24.1875 24.2813 24.2813 24.2969 24.3125 24.3125 24.3281 24.3438 24.3594 24.3594 24.375 24.3906 24.4063 24.4063 24.4219 24.4375 24.4531 24.4688 24.3906 24.4063 24.4219 24.4375 24.4531 24.4688 24.4844 24.4844 24.5 24.6094 24.6094 24.625 24.6406 24.6563 24.6719 24.6875 24.7031 24.7188 24.7344 24.7656 24.7813 24.7969 24.8125 24.8281 24.8438 24.7813 24.7969 24.8125 24.8281 24.8438 24.875 24.8906 24.9063 24.9219 24.9375 24.9688 24.9844 25.1563 25.1719 25.1875 25.2188 25.2344 25.25 25.2813 25.2969 25.3125 25.3438 25.3594 25.375 25.4063 25.4219 25.4531 25.4688 25.4844 25.5156 25.5313 25.5625 25.5781 25.6094 25.625 25.6563 25.6719 25.7031 25.7188 25.75 25.7656 25.7969 25.8125 25.8438 25.875 25.8906 25.9219 25.9375 25.9688 26 26.0156 26.0469 26.0781 26.0938 26.125 26.1563 26.1719 26.2031 26.2344 26.2656 26.2813 26.3125 26.3438 26.375 26.3906 26.4219 26.4531 26.4844 26.5156 26.5313 26.5625 26.4375 26.4531 26.4844 26.5156 26.5469 26.5781 26.6094 26.6406 26.6719 26.7031 26.7344 26.75 26.875 26.9063
65504 65504 65504 65504 65504 65504 65504 65504 65504 65504 65504 65504 65504 65504 65504 65504 65504 65504 65504 65504 65504 65504 65504 65504 65504 65504 65504 65504 65504 65504 65504 65504 65504 65504 65504 65504 65504 65504 65504 65504 65504 65504 65504 65504 65504 65504 65504 65504 65504 65504 65504 65504 65504 65504 65504 65504 65504 65504 65504 65504 65504 65504 65504 65504 65504 65504 65504 65504 65504 65504 65504 65504 65504 65504 65504 65504 65504 65504 65504 65504 65504 65504 65504 65504 65504 65504 65504 65504 65504 65504 65504 65504 65504 65504 65504 65504 65504 65504 65504 65504 65504 65504 65504 65504 65504 65504 65504 65504 65504 65504 65504 65504 65504 65504 25.625 25.5938 25.5781 25.5469 25.5313 25.5 25.4844 25.4531 25.4375 25.4063 25.3906 25.375 25.3438 25.3438 25.4531 25.4375 25.4219 25.3906 25.375 25.3594 25.3281 25.3125 25.2969 25.2656 25.25 25.2344 25.2031 25.1875 25.1719 25.1563 24.9844 24.9531 24.9375 24.9219 24.9063 24.8906 24.8594 24.8438 24.8281 24.8125 24.8594 24.9375 24.9063 24.8906 24.875 24.8594 24.8438 24.8281 24.8125 24.7969 24.7813 24.7656 24.75 24.7344 24.7188 24.7031 24.6875 24.5156 24.5 24.4844 24.4844 24.4688 24.4531 24.4375 24.4219 24.4063 24.3906 24.375 24.375 24.5 24.5 24.4844 24.4688 24.4531 24.4375 24.4375 24.4219 24.4063 24.3906 24.3906 24.375 24.3594 24.3594 24.3438 24.3281 24.3281 24.3125 24.2969 24.2969 24.2813 24.2813 24.2656 24.25 24.25 24.2344 24.2344 24.2188 24.2188 24.2031 24.2031 24.1875 24.1875 24.1719 24.1719 24.1719 24.1563 24.1563 24.1406 24.1406 24.1406 24.125 24.125 24.1094 24.1094 24.1094 24.1094 24.0938 24.0938 24.0938 24.0781 24.0781 24.0781 24.0781 24.0781 24.0625 24.0625 24.0625 24.0625 24.0625 23.9063 23.9063 23.9063 23.9063 23.9063 23.9063 23.8906 23.8906 23.8906 23.8906 23.8906 23.8906 23.8906 24.0156 24.0156 24.0156 24.0156 24.0156 24.0156 24.0156 24.0156 24.0156 24.0313 24.0313 24.0313 24.0313 24.0313 24.0313 24.0313 23.9219 23.9219 23.9375 23.9375 23.9375 23.9375 23.9531 23.9531 23.9531 24.0625 24.0625 24.0781 24.0781 24.0781 24.0938 24.0938 24.0938 24.1094 24.1094 24.1094 24.125 24.125 24.1406 24.1406 24.1563 24.0625 24.0781 24.0781 24.0938 24.0938 24.1094 24.1094 24.125 24.1406 24.1406 24.1563 24.1563 24.25 24.2656 24.2656 24.2813 24.2969 24.3125 24.3125 24.3281 24.3438 24.3438 24.3594 24.375 24.3906 24.4063 24.4063 24.4219 24.4375 24.375 24.375 24.3906 24.4063 24.4219 24.4375 24.4531 24.4688 24.4844 24.5781 24.5938 24.6094 24.625 24.6406 24.6563 24.6719 24.6875 24.7031 24.7188 24.7344 24.75 24.7656 24.7813 24.7969 24.8125 24.75 24.7656 24.7813 24.8125 24.8281 24.8438 24.8594 24.875 24.9063 24.9219 24.9375 24.9531 25.125 25.1563 25.1719 25.1875 25.2031 25.2344 25.25 25.2656 25.2969 25.3125 25.3281 25.3594 25.375 25.4063 25.4219 25.4375 25.4688 25.4844 25.5156 25.5313 25.5625 25.5781 25.6094 25.625 25.6563 25.6719 25.7031 25.7188 25.75 25.7656 25.7969 25.8125 25.8438 25.875 25.8906 25.9219 25.9375 25.9688 26 26.0156 26.0469 26.0781 26.0938 26.125 26.1563 26.1875 26.2031 26.2344 26.2656 26.2969 26.3125 26.3438 26.375 26.4063 26.4219 26.4531 26.4844 26.5156 26.5313 26.4063 26.4375 26.4688 26.5 26.5313 26.5469 26.5781 26.6094 26.6406 26.6719 26.7031 26.7344 26.8594 26.8906
65504 65504 65504 65504 65504 65504 65504 65504 65504 65504 65504 65504 65504 65504 65504 65504 65504 65504 65504 65504 65504 65504 65504 65504 65504 65504 65504 65504 65504 65504 65504 65504 65504 65504 65504 65504 65504 65504 65504 65504 65504 65504 65504 65504 65504 65504 65504 65504 65504 65504 65504 65504 65504 65504 65504 65504 65504 65504 65504 65504 65504 65504 65504 65504 65504 65504 65504 65504 65504 65504 65504 65504 65504 65504 65504 65504 65504 65504 65504 65504 65504 65504 65504 65504 65504 65504 65504 65504 65504 65504 65504 65504 65504 65504 65504 65504 65504 65504 65504 65504 65504 65504 65504 65504 65504 65504 65504 65504 65504 65504 65504 65504 65504 65504 25.5938 25.5781 25.5469 25.5313 25.5 25.4844 25.4531 25.4375 25.4063 25.3906 25.3594 25.3438 25.3281 25.3125 25.4375 25.4219 25.3906 25.375 25.3438 25.3281 25.3125 25.2813 25.2656 25.25 25.2344 25.2031 25.1875 25.1719 25.1406 25.125 25.1094 24.9375 24.9219 24.8906 24.875 24.8594 24.8438 24.8281 24.8125 24.7813 24.8281 24.9063 24.8906 24.875 24.8594 24.8438 24.8281 24.7969 24.7813 24.7656 24.75 24.7344 24.7188 24.7031 24.6875 24.6719 24.6563 24.5 24.4844 24.4688 24.4531 24.4375 24.4219 24.4063 24.3906 24.375 24.375 24.3594 24.3438 24.4844 24.4688 24.4531 24.4375 24.4375 24.4219 24.4063 24.3906 24.3906 24.375 24.3594 24.3438 24.3438 24.3281 24.3125 24.3125 24.2969 24.2813 24.2813 24.2656 24.2656 24.25 24.2344 24.2344 24.2188 24.2188 24.2031 24.2031 24.1875 24.1875 24.1719 24.1719 24.1563 24.1563 24.1406 24.1406 24.125 24.125 24.125 24.1094 24.1094 24.1094 24.0938 24.0938 24.0781 24.0781 24.0781 24.0781 24.0625 24.0625 24.0625 24.0625 24.0469 24.0469 24.0469 24.0469 24.0313 24.0313 24.0313 24.0313 23.875 23.875 23.875 23.875 23.875 23.875 23.875 23.875 23.875 23.875 23.875 23.875 23.875 24.0156 24.0156 24.0156 24.0156 24.0156 24.0156 24.0156 24.0313 24.0313 24.0313 24.0313 24.0313 24.0313 24.0313 24.0469 24.0469 23.8906 23.9063 23.9063 23.9063 23.9063 23.9219 23.9219 23.9219 23.9375 24.0781 24.0938 24.0938 24.0938 24.1094 24.1094 24.1094 24.125 24.125 24.1406 24.1406 24.1563 24.1563 24.1719 24.1719 24.1719 24.0313 24.0469 24.0469 24.0625 24.0781 24.0781 24.0938 24.0938 24.1094 24.1094 24.125 24.1406 24.2969 24.3125 24.3125 24.3281 24.3438 24.3438 24.3594 24.375 24.375 24.3906 24.4063 24.4219 24.4375 24.4375 24.4531 24.4688 24.4531 24.3438 24.3594 24.375 24.3906 24.3906 24.4063 24.4219 24.4375 24.4531 24.625 24.6406 24.6563 24.6719 24.6875 24.7031 24.7188 24.7344 24.75 24.7656 24.7813 24.7969 24.8125 24.8281 24.8438 24.8125 24.7344 24.75 24.7656 24.7813 24.7969 24.8125 24.8438 24.8594 24.875 24.8906 24.9063 24.9375 25.1094 25.125 25.1406 25.1719 25.1875 25.2031 25.2188 25.25 25.2656 25.2969 25.3125 25.3281 25.3594 25.375 25.3906 25.4219 25.4375 25.4688 25.4844 25.5156 25.5313 25.5625 25.5781 25.6094 25.625 25.6563 25.6719 25.7031 25.7188 25.75 25.7656 25.7969 25.8125 25.8438 25.875 25.8906 25.9219 25.9531 25.9688 26 26.0313 26.0469 26.0781 26.1094 26.125 26.1563 26.1875 26.2188 26.2344 26.2656 26.2969 26.3281 26.3438 26.375 26.4063 26.4375 26.4688 26.4844 26.5 26.3906 26.4219 26.4375 26.4688 26.5 26.5313 26.5625 26.5938 26.625 26.6563 26.6875 26.7188 26.8281 26.8594
65504 65504 65504 65504 65504 65504 65504 65504 65504 65504 65504 65504 65504 65504 65504 65504 65504 65504 65504 65504 65504 65504 65504 65504 65504 65504 65504 65504 65504 65504 65504 65504 65504 65504 65504 65504 65504 65504 65504 65504 65504 65504 65504 65504 65504 65504 65504 65504 65504 65504 65504 65504 65504 65504 65504 65504 65504 65504 65504 65504 65504 65504 65504 65504 65504 65504 65504 65504 65504 65504 65504 65504 65504 65504 65504 65504 65504 65504 65504 65504 65504 65504 65504 65504 65504 65504 65504 65504 65504 65504 65504 65504 65504 65504 65504 65504 65504 65504 65504 65504 65504 65504 65504 65504 65504 65504 65504 65504 65504 65504 65504 65504 65504 65504 25.5781 25.5469 25.5313 25.5 25.4844 25.4531 25.4375 25.4063 25.3906 25.3594 25.3438 25.3281 25.2969 25.2813 25.4063 25.3906 25.375 25.3438 25.3281 25.3125 25.2813 25.2656 25.25 25.2188 25.2031 25.1875 25.1563 25.1406 25.125 25.1094 25.0781 24.9063 24.8906 24.875 24.8594 24.8438 24.8125 24.7969 24.7813 24.7656 24.7969 24.875 24.8594 24.8438 24.8281 24.8125 24.7969 24.7813 24.7656 24.75 24.7344 24.7188 24.7031 24.6875 24.6719 24.6563 24.6406 24.4688 24.4531 24.4375 24.4219 24.4063 24.4063 24.3906 24.375 24.3594 24.3438 24.3281 24.3125 24.4531 24.4375 24.4375 24.4219 24.4063 24.3906 24.375 24.375 24.3594 24.3438 24.3281 24.3281 24.3125 24.2969 24.2969 24.2813 24.2656 24.2656 24.25 24.25 24.2344 24.2188 24.2188 24.2031 24.2031 24.1875 24.1875 24.1719 24.1563 24.1563 24.1406 24.1406 24.1406 24.125 24.125 24.1094 24.1094 24.0938 24.0938 24.0938 24.0781 24.0781 24.0625 24.0625 24.0625 24.0625 24.0469 24.0469 24.0469 24.0313 24.0313 24.0313 24.0313 24.0156 24.0156 24.0156 24.0156 24.0156 24 24 23.8594 23.8594 23.8438 23.8438 23.8438 23.8438 23.8438 23.8438 23.8438 23.8438 23.8438 23.8438 23.8438 23.9844 23.9844 23.9844 24 24 24 24 24 24 24 24 24 24.0156 24.0156 24.0156 24.0156 23.875 23.875 23.875 23.8906 23.8906 23.8906 23.8906 23.9063 23.9063 24.0625 24.0625 24.0625 24.0781 24.0781 24.0781 24.0938 24.0938 24.1094 24.1094 24.1094 24.125 24.125 24.1406 24.1406 24.1563 24.0156 24.0156 24.0313 24.0313 24.0469 24.0469 24.0625 24.0781 24.0781 24.0938 24.0938 24.1094 24.2656 24.2813 24.2969 24.2969 24.3125 24.3281 24.3281 24.3438 24.3594 24.375 24.375 24.3906 24.4063 24.4219 24.4375 24.4375 24.4219 24.3125 24.3281 24.3438 24.3594 24.375 24.3906 24.4063 24.4219 24.4219 24.5938 24.6094 24.625 24.6406 24.6563 24.6719 24.6875 24.7031 24.7188 24.7344 24.75 24.7656 24.7813 24.7969 24.8281 24.7813 24.7031 24.7188 24.7344 24.75 24.7813 24.7969 24.8125 24.8281 24.8438 24.875 24.8906 24.9063 25.0781 25.0938 25.125 25.1406 25.1563 25.1875 25.2031 25.2188 25.25 25.2656 25.2813 25.3125 25.3281 25.3438 25.375 25.3906 25.4219 25.4375 25.4688 25.4844 25.5156 25.5313 25.5469 25.5781 25.5938 25.625 25.6563 25.6719 25.7031 25.7188 25.75 25.7656 25.7969 25.8281 25.8438 25.875 25.8906 25.9219 25.9531 25.9688 26 26.0313 26.0469 26.0781 26.1094 26.1406 26.1563 26.1875 26.2188 26.25 26.2656 26.2969 26.3281 26.3594 26.375 26.4063 26.4375 26.4688 26.4844 26.3594 26.3906 26.4219 26.4531 26.4844 26.5156 26.5313 26.5625 26.5938 26.625 26.6563 26.6875 26.8906 26.9219
65504 65504 65504 65504 65504 65504 65504 65504 65504 65504 65504 65504 65504 65504 65504 65504 65504 65504 65504 65504 65504 65504 65504 65504 65504 65504 65504 65504 65504 65504 65504 65504 65504 65504 65504 65504 65504 65504 65504 65504 65504 65504 65504 65504 65504 65504 65504 65504 65504 65504 65504 65504 65504 65504 65504 65504 65504 65504 65504 65504 65504 65504 65504 65504 65504 65504 65504 65504 65504 65504 65504 65504 65504 65504 65504 65504 65504 65504 65504 65504 65504 65504 65504 65504 65504 65504 65504 65504 65504 65504 65504 65504 65504 65504 65504 65504 65504 65504 65504 65504 65504 65504 65504 65504 65504 65504 65504 65504 65504 65504 65504 65504 65504 65504 25.5469 25.5313 25.5 25.4844 25.4531 25.4375 25.4063 25.3906 25.3594 25.3438 25.3125 25.2969 25.2813 25.25 25.3906 25.3594 25.3438 25.3281 25.2969 25.2813 25.2656 25.2344 25.2188 25.2031 25.1719 25.1563 25.1406 25.125 25.0938 25.0781 25.0625 24.8906 24.875 24.8438 24.8281 24.8125 24.7969 24.7813 24.75 24.7344 24.7656 24.8594 24.8438 24.8281 24.8125 24.7813 24.7656 24.75 24.7344 24.7188 24.7031 24.6875 24.6719 24.6563 24.6406 24.625 24.6094 24.4531 24.4375 24.4219 24.4063 24.3906 24.375 24.3594 24.3438 24.3281 24.3125 24.3125 24.2969 24.4375 24.4219 24.4063 24.3906 24.375 24.375 24.3594 24.3438 24.3281 24.3281 24.3125 24.2969 24.2813 24.2813 24.2656 24.25 24.25 24.2344 24.2344 24.2188 24.2031 24.2031 24.1875 24.1875 24.1719 24.1563 24.1563 24.1406 24.1406 24.125 24.125 24.1094 24.1094 24.0938 24.0938 24.0938 24.0781 24.0781 24.0625 24.0625 24.0625 24.0469 24.0469 24.0469 24.0313 24.0313 24.0313 24.0156 24.0156 24.0156 24 24 24 24 24 23.9844 23.9844 23.9844 23.9844 23.9844 23.8281 23.8281 23.8281 23.8281 23.8281 23.8281 23.8281 23.8125 23.8125 23.8125 23.8125 23.8125 23.8125 23.9688 23.9688 23.9688 23.9688 23.9688 23.9688 23.9688 23.9688 23.9688 23.9688 23.9844 23.9844 23.9844 23.9844 23.9844 23.9844 23.8438 23.8438 23.8594 23.8594 23.8594 23.8594 23.875 23.875 23.875 24.0313 24.0313 24.0469 24.0469 24.0469 24.0625 24.0625 24.0781 24.0781 24.0781 24.0938 24.0938 24.1094 24.1094 24.125 24.125 23.9844 24 24 24.0156 24.0156 24.0313 24.0313 24.0469 24.0625 24.0625 24.0781 24.0781 24.25 24.25 24.2656 24.2813 24.2813 24.2969 24.3125 24.3125 24.3281 24.3438 24.3594 24.3594 24.375 24.3906 24.4063 24.4219 24.3906 24.2969 24.3125 24.3125 24.3281 24.3438 24.3594 24.375 24.3906 24.4063 24.5625 24.5781 24.5938 24.6094 24.625 24.6406 24.6563 24.6719 24.6875 24.7188 24.7344 24.75 24.7656 24.7813 24.7969 24.75 24.6719 24.7031 24.7188 24.7344 24.75 24.7656 24.7813 24.8125 24.8281 24.8438 24.8594 24.875 25.0625 25.0781 25.0938 25.1094 25.1406 25.1563 25.1719 25.2031 25.2188 25.2344 25.2656 25.2813 25.2969 25.3281 25.3438 25.375 25.3906 25.4219 25.4375 25.4531 25.4844 25.5 25.5313 25.5469 25.5781 25.5938 25.625 25.6563 25.6719 25.7031 25.7188 25.75 25.7656 25.7969 25.8281 25.8438 25.875 25.9063 25.9219 25.9531 25.9844 26 26.0313 26.0625 26.0781 26.1094 26.1406 26.1719 26.1875 26.2188 26.25 26.2813 26.2969 26.3281 26.3594 26.3906 26.4219 26.4375 26.4531 26.3438 26.375 26.3906 26.4219 26.4531 26.4844 26.5156 26.5469 26.5781 26.6094 26.6406 26.6719 26.8594 26.8906
65504 65504 65504 65504 65504 65504 65504 65504 65504 65504 65504 65504 65504 65504 65504 65504 65504 65504 65504 65504 65504 65504 65504 65504 65504 65504 65504 65504 65504 65504 65504 65504 65504 65504 65504 65504 65504 65504 65504 65504 65504 65504 65504 65504 65504 65504 65504 65504 65504 65504 65504 65504 65504 65504 65504 65504 65504 65504 65504 65504 65504 65504 65504 65504 65504 65504 65504 65504 65504 65504 65504 65504 65504 65504 65504 65504 65504 65504 65504 65504 65504 65504 65504 65504 65504 65504 65504 65504 65504 65504 65504 65504 65504 65504 65504 65504 65504 65504 65504 65504 65504 65504 65504 65504 65504 65504 65504 65504 65504 65504 65504 65504 65504 65504 25.5313 25.5 25.4844 25.4531 25.4375 25.4063 25.3906 25.3594 25.3438 25.3125 25.2969 25.2813 25.25 25.2344 25.3594 25.3438 25.3281 25.2969 25.2813 25.2656 25.2344 25.2188 25.2031 25.1719 25.1563 25.1406 25.1094 25.0938 25.0781 25.0625 25.0313 24.8594 24.8438 24.8281 24.8125 24.7813 24.7656 24.75 24.7344 24.7188 24.7344 24.8281 24.8125 24.7969 24.7813 24.7656 24.75 24.7344 24.7188 24.7031 24.6875 24.6719 24.6563 24.6406 24.625 24.6094 24.5938 24.4219 24.4063 24.3906 24.375 24.3594 24.3438 24.3281 24.3281 24.3125 24.2969 24.2813 24.2656 24.4063 24.3906 24.375 24.375 24.3594 24.3438 24.3281 24.3125 24.3125 24.2969 24.2813 24.2813 24.2656 24.25 24.2344 24.2344 24.2188 24.2188 24.2031 24.1875 24.1875 24.1719 24.1563 24.1563 24.1406 24.1406 24.125 24.125 24.1094 24.1094 24.0938 24.0938 24.0781 24.0781 24.0625 24.0625 24.0625 24.0469 24.0469 24.0313 24.0313 24.0313 24.0156 24.0156 24.0156 24 24 24 23.9844 23.9844 23.9844 23.9844 23.9688 23.9688 23.9688 23.9688 23.9688 23.9531 23.9531 23.9531 23.7969 23.7969 23.7969 23.7969 23.7969 23.7969 23.7969 23.7969 23.7969 23.7969 23.7969 23.7969 23.7969 23.9375 23.9375 23.9375 23.9375 23.9375 23.9375 23.9375 23.9531 23.9531 23.9531 23.9531 23.9531 23.9531 23.9531 23.9688 23.9688 23.8281 23.8281 23.8281 23.8281 23.8281 23.8438 23.8438 23.8438 23.8594 24 24.0156 24.0156 24.0156 24.0313 24.0313 24.0469 24.0469 24.0469 24.0625 24.0625 24.0781 24.0781 24.0938 24.0938 24.1094 23.9688 23.9688 23.9844 23.9844 24 24 24.0156 24.0156 24.0313 24.0469 24.0469 24.0625 24.2188 24.2344 24.2344 24.25 24.2656 24.2656 24.2813 24.2969 24.3125 24.3125 24.3281 24.3438 24.3594 24.3594 24.375 24.3906 24.3594 24.2656 24.2813 24.2969 24.3125 24.3281 24.3438 24.3438 24.3594 24.375 24.5469 24.5625 24.5781 24.5938 24.6094 24.625 24.6406 24.6563 24.6719 24.6875 24.7031 24.7188 24.7344 24.75 24.7656 24.7188 24.6563 24.6719 24.6875 24.7031 24.7188 24.75 24.7656 24.7813 24.7969 24.8125 24.8438 24.8594 25.0313 25.0469 25.0781 25.0938 25.1094 25.125 25.1563 25.1719 25.1875 25.2188 25.2344 25.2656 25.2813 25.2969 25.3281 25.3438 25.375 25.3906 25.4063 25.4375 25.4531 25.4844 25.5 25.5313 25.5469 25.5781 25.5938 25.625 25.6563 25.6719 25.7031 25.7188 25.75 25.7656 25.7969 25.8281 25.8438 25.875 25.9063 25.9219 25.9531 25.9844 26 26.0313 26.0625 26.0938 26.1094 26.1406 26.1719 26.2031 26.2188 26.25 26.2813 26.3125 26.3438 26.3594 26.3906 26.4219 26.4219 26.3125 26.3438 26.375 26.4063 26.4375 26.4688 26.5 26.5156 26.5469 26.5781 26.6094 26.6406 26.8438 26.875
65504 65504 65504 65504 65504 65504 65504 65504 65504 65504 65504 65504 65504 65504 65504 65504 65504 65504 65504 65504 65504 65504 65504 65504 65504 65504 65504 65504 65504 65504 65504 65504 65504 65504 65504 65504 65504 65504 65504 65504 65504 65504 65504 65504 65504 65504 65504 65504 65504 65504 65504 65504 65504 65504 65504 65504 65504 65504 65504 65504 65504 65504 65504 65504 65504 65504 65504 65504 65504 65504 65504 65504 65504 65504 65504 65504 65504 65504 65504 65504 65504 65504 65504 65504 65504 65504 65504 65504 65504 65504 65504 65504 65504 65504 65504 65504 65504 65504 65504 65504 65504 65504 65504 65504 65504 65504 65504 65504 65504 65504 65504 65504 65504 65504 25.5 25.4844 25.4531 25.4375 25.4063 25.3906 25.3594 25.3438 25.3125 25.2969 25.2813 25.25 25.2344 25.2031 25.3438 25.3125 25.2969 25.2813 25.25 25.2344 25.2188 25.1875 25.1719 25.1563 25.125 25.1094 25.0938 25.0781 25.0469 25.0313 25.0156 24.8438 24.8125 24.7969 24.7813 24.7656 24.75 24.7344 24.7031 24.6875 24.7188 24.8125 24.7969 24.7813 24.75 24.7344 24.7188 24.7031 24.6875 24.6719 24.6563 24.6406 24.625 24.6094 24.5938 24.5781 24.5625 24.3906 24.375 24.375 24.3594 24.3438 24.3281 24.3125 24.2969 24.2813 24.2656 24.25 24.25 24.375 24.375 24.3594 24.3438 24.3281 24.3125 24.3125 24.2969 24.2813 24.2656 24.2656 24.25 24.2344 24.2344 24.2188 24.2031 24.2031 24.1875 24.1719 24.1719 24.1563 24.1406 24.1406 24.125 24.125 24.1094 24.1094 24.0938 24.0938 24.0781 24.0781 24.0625 24.0625 24.0469 24.0469 24.0313 24.0313 24.0156 24.0156 24.0156 24 24 24 23.9844 23.9844 23.9844 23.9688 23.9688 23.9688 23.9531 23.9531 23.9531 23.9531 23.9375 23.9375 23.9375 23.9375 23.9375 23.9375 23.9219 23.7813 23.7813 23.7813 23.7656 23.7656 23.7656 23.7656 23.7656 23.7656 23.7656 23.7656 23.7656 23.7656 23.9063 23.9219 23.9219 23.9219 23.9219 23.9219 23.9219 23.9219 23.9219 23.9219 23.9219 23.9219 23.9375 23.9375 23.9375 23.9375 23.7969 23.7969 23.7969 23.8125 23.8125 23.8125 23.8125 23.8281 23.8281 23.9844 23.9844 23.9844 24 24 24 24.0156 24.0156 24.0313 24.0313 24.0469 24.0469 24.0469 24.0625 24.0625 24.0781 23.9375 23.9375 23.9531 23.9531 23.9688 23.9844 23.9844 24 24 24.0156 24.0313 24.0313 24.1875 24.2031 24.2188 24.2188 24.2344 24.25 24.25 24.2656 24.2813 24.2969 24.2969 24.3125 24.3281 24.3438 24.3594 24.3594 24.3281 24.25 24.25 24.2656 24.2813 24.2969 24.3125 24.3281 24.3438 24.3594 24.5156 24.5313 24.5469 24.5625 24.5781 24.5938 24.6094 24.625 24.6406 24.6563 24.6719 24.6875 24.7188 24.7344 24.75 24.6875 24.625 24.6406 24.6719 24.6875 24.7031 24.7188 24.7344 24.75 24.7813 24.7969 24.8125 24.8281 25 25.0313 25.0469 25.0625 25.0938 25.1094 25.125 25.1563 25.1719 25.1875 25.2188 25.2344 25.25 25.2813 25.2969 25.3281 25.3438 25.3594 25.3906 25.4063 25.4375 25.4531 25.4844 25.5 25.5313 25.5469 25.5781 25.5938 25.625 25.6563 25.6719 25.7031 25.7188 25.75 25.7813 25.7969 25.8281 25.8594 25.875 25.9063 25.9375 25.9531 25.9844 26.0156 26.0313 26.0625 26.0938 26.125 26.1406 26.1719 26.2031 26.2344 26.25 26.2813 26.3125 26.3438 26.375 26.4063 26.3906 26.2969 26.3281 26.3594 26.375 26.4063 26.4375 26.4688 26.5 26.5313 26.5625 26.5938 26.625 26.8125 26.8438
65504 65504 65504 65504 65504 65504 65504 65504 65504 65504 65504 65504 65504 65504 65504 65504 65504 65504 65504 65504 65504 65504 65504 65504 65504 65504 65504 65504 65504 65504 65504 65504 65504 65504 65504 65504 65504 65504 65504 65504 65504 65504 65504 65504 65504 65504 65504 65504 65504 65504 65504 65504 65504 65504 65504 65504 65504 65504 65504 65504 65504 65504 65504 65504 65504 65504 65504 65504 65504 65504 65504 65504 65504 65504 65504 65504 65504 65504 65504 65504 65504 65504 65504 65504 65504 65504 65504 65504 65504 65504 65504 65504 65504 65504 65504 65504 65504 65504 65504 65504 65504 65504 65504 65504 65504 65504 65504 65504 65504 65504 65504 65504 65504 65504 25.4844 25.4531 25.4375 25.4063 25.3906 25.3594 25.3438 25.3125 25.2969 25.2656 25.25 25.2344 25.2031 25.1875 25.3125 25.2969 25.2813 25.25 25.2344 25.2188 25.1875 25.1719 25.1563 25.125 25.1094 25.0938 25.0625 25.0469 25.0313 25.0156 24.9844 24.8125 24.7969 24.7813 24.7656 24.7344 24.7188 24.7031 24.6875 24.6719 24.6875 24.7813 24.7656 24.75 24.7344 24.7188 24.7031 24.6875 24.6719 24.6563 24.6406 24.6094 24.5938 24.5781 24.5625 24.5469 24.5313 24.375 24.3594 24.3438 24.3281 24.3125 24.2969 24.2813 24.2656 24.2656 24.25 24.2344 24.2188 24.3594 24.3438 24.3281 24.3125 24.3125 24.2969 24.2813 24.2656 24.2656 24.25 24.2344 24.2188 24.2188 24.2031 24.1875 24.1875 24.1719 24.1563 24.1563 24.1406 24.125 24.125 24.1094 24.1094 24.0938 24.0938 24.0781 24.0781 24.0625 24.0469 24.0469 24.0469 24.0313 24.0313 24.0156 24.0156 24 24 23.9844 23.9844 23.9844 23.9688 23.9688 23.9688 23.9531 23.9531 23.9531 23.9375 23.9375 23.9375 23.9375 23.9219 23.9219 23.9219 23.9219 23.9063 23.9063 23.9063 23.9063 23.9063 23.75 23.75 23.75 23.75 23.75 23.75 23.75 23.75 23.75 23.7344 23.7344 23.7344 23.7344 23.8906 23.8906 23.8906 23.8906 23.8906 23.8906 23.8906 23.8906 23.8906 23.9063 23.9063 23.9063 23.9063 23.9063 23.9063 23.9219 23.7656 23.7813 23.7813 23.7813 23.7813 23.7969 23.7969 23.7969 23.7969 23.9531 23.9531 23.9688 23.9688 23.9688 23.9844 23.9844 24 24 24 24.0156 24.0156 24.0313 24.0313 24.0469 24.0469 23.9063 23.9219 23.9219 23.9375 23.9375 23.9531 23.9688 23.9688 23.9844 23.9844 24 24.0156 24.1719 24.1719 24.1875 24.2031 24.2031 24.2188 24.2344 24.25 24.25 24.2656 24.2813 24.2969 24.2969 24.3125 24.3281 24.3438 24.2969 24.2188 24.2344 24.25 24.2656 24.2656 24.2813 24.2969 24.3125 24.3281 24.5 24.5156 24.5313 24.5469 24.5625 24.5781 24.5938 24.6094 24.625 24.6406 24.6563 24.6719 24.6875 24.7031 24.7188 24.6563 24.6094 24.625 24.6406 24.6563 24.6719 24.6875 24.7188 24.7344 24.75 24.7656 24.7969 24.8125 24.9844 25 25.0156 25.0469 25.0625 25.0781 25.1094 25.125 25.1406 25.1719 25.1875 25.2031 25.2344 25.25 25.2813 25.2969 25.3281 25.3438 25.3594 25.3906 25.4063 25.4375 25.4531 25.4844 25.5 25.5313 25.5469 25.5781 25.6094 25.625 25.6563 25.6719 25.7031 25.7188 25.75 25.7813 25.7969 25.8281 25.8594 25.875 25.9063 25.9375 25.9531 25.9844 26.0156 26.0469 26.0625 26.0938 26.125 26.1563 26.1719 26.2031 26.2344 26.2656 26.2969 26.3125 26.3438 26.375 26.375 26.2656 26.2969 26.3281 26.3594 26.3906 26.4219 26.4531 26.4844 26.5156 26.5313 26.5625 26.5938 26.7969 26.8281
65504 65504 65504 65504 65504 65504 65504 65504 65504 65504 65504 65504 65504 65504 65504 65504 65504 65504 65504 65504 65504 65504 65504 65504 65504 65504 65504 65504 65504 65504 65504 65504 65504 65504 65504 65504 65504 65504 65504 65504 65504 65504 65504 65504 65504 65504 65504 65504 65504 65504 65504 65504 65504 65504 65504 65504 65504 65504 65504 65504 65504 65504 65504 65504 65504 65504 65504 65504 65504 65504 65504 65504 65504 65504 65504 65504 65504 65504 65504 65504 65504 65504 65504 65504 65504 65504 65504 65504 65504 65504 65504 65504 65504 65504 65504 65504 65504 65504 65504 65504 65504 65504 65504 65504 65504 65504 65504 65504 65504 65504 65504 65504 65504 65504 25.4531 25.4375 25.4063 25.3906 25.3594 25.3438 25.3125 25.2969 25.2656 25.25 25.2344 25.2031 25.1875 25.1563 25.2969 25.2813 25.25 25.2344 25.2031 25.1875 25.1719 25.1406 25.125 25.1094 25.0781 25.0625 25.0469 25.0313 25 24.9844 24.9688 24.7969 24.7656 24.75 24.7344 24.7188 24.7031 24.6875 24.6563 24.6406 24.6563 24.7656 24.75 24.7188 24.7031 24.6875 24.6719 24.6563 24.6406 24.625 24.6094 24.5938 24.5781 24.5625 24.5469 24.5313 24.5156 24.3438 24.3281 24.3125 24.3125 24.2969 24.2813 24.2656 24.25 24.2344 24.2188 24.2031 24.1875 24.3281 24.3125 24.3125 24.2969 24.2813 24.2656 24.25 24.25 24.2344 24.2188 24.2031 24.2031 24.1875 24.1719 24.1719 24.1563 24.1406 24.1406 24.125 24.1094 24.1094 24.0938 24.0938 24.0781 24.0781 24.0625 24.0469 24.0469 24.0313 24.0313 24.0156 24.0156 24 24 24 23.9844 23.9844 23.9688 23.9688 23.9531 23.9531 23.9531 23.9375 23.9375 23.9375 23.9219 23.9219 23.9219 23.9063 23.9063 23.9063 23.9063 23.8906 23.8906 23.8906 23.8906 23.8906 23.875 23.875 23.875 23.7344 23.7188 23.7188 23.7188 23.7188 23.7188 23.7188 23.7188 23.7188 23.7188 23.7188 23.7188 23.7188 23.8594 23.8594 23.8594 23.8594 23.8594 23.8594 23.875 23.875 23.875 23.875 23.875 23.875 23.875 23.8906 23.8906 23.8906 23.75 23.75 23.75 23.75 23.7656 23.7656 23.7656 23.7656 23.7813 23.9219 23.9375 23.9375 23.9531 23.9531 23.9531 23.9688 23.9688 23.9688 23.9844 23.9844 24 24 24.0156 24.0156 24.0313 23.8906 23.8906 23.9063 23.9063 23.9219 23.9219 23.9375 23.9531 23.9531 23.9688 23.9688 23.9844 24.1406 24.1563 24.1563 24.1719 24.1875 24.2031 24.2031 24.2188 24.2344 24.2344 24.25 24.2656 24.2813 24.2969 24.2969 24.3125 24.2656 24.1875 24.2031 24.2188 24.2344 24.25 24.2656 24.2813 24.2969 24.3125 24.4688 24.4844 24.5 24.5156 24.5313 24.5469 24.5625 24.5781 24.5938 24.6094 24.625 24.6406 24.6563 24.6719 24.7031 24.6406 24.5781 24.5938 24.6094 24.6406 24.6563 24.6719 24.6875 24.7031 24.7344 24.75 24.7656 24.7813 24.9531 24.9844 25 25.0156 25.0313 25.0625 25.0781 25.0938 25.125 25.1406 25.1719 25.1875 25.2031 25.2344 25.25 25.2813 25.2969 25.3125 25.3438 25.3594 25.3906 25.4063 25.4375 25.4531 25.4844 25.5 25.5313 25.5469 25.5781 25.6094 25.625 25.6563 25.6719 25.7031 25.7344 25.75 25.7813 25.8125 25.8281 25.8594 25.8906 25.9063 25.9375 25.9688 25.9844 26.0156 26.0469 26.0781 26.0938 26.125 26.1563 26.1875 26.2031 26.2344 26.2656 26.2969 26.3281 26.3594 26.3438 26.25 26.2813 26.3125 26.3438 26.3594 26.3906 26.4219 26.4531 26.4844 26.5156 26.5469 26.7344 26.7656 26.7969
65504 65504 65504 65504 65504 65504 65504 65504 65504 65504 65504 65504 65504 65504 65504 65504 65504 65504 65504 65504 65504 65504 65504 65504 65504 65504 65504 65504 65504 65504 65504 65504 65504 65504 65504 65504 65504 65504 65504 65504 65504 65504 65504 65504 65504 65504 65504 65504 65504 65504 65504 65504 65504 65504 65504 65504 65504 65504 65504 65504 65504 65504 65504 65504 65504 65504 65504 65504 65504 65504 65504 65504 65504 65504 65504 65504 65504 65504 65504 65504 65504 65504 65504 65504 65504 65504 65504 65504 65504 65504 65504 65504 65504 65504 65504 65504 65504 65504 65504 65504 65504 65504 65504 65504 65504 65504 65504 65504 65504 65504 65504 65504 65504 65504 25.4375 25.4063 25.3906 25.3594 25.3438 25.3125 25.2969 25.2813 25.25 25.2344 25.2031 25.1875 25.1563 25.1406 25.2656 25.25 25.2344 25.2031 25.1875 25.1719 25.1406 25.125 25.1094 25.0781 25.0625 25.0469 25.0156 25 24.9844 24.9688 24.9375 24.7656 24.75 24.7344 24.7188 24.6875 24.6719 24.6563 24.6406 24.625 24.625 24.7344 24.7188 24.7031 24.6875 24.6719 24.6563 24.6406 24.625 24.5938 24.5781 24.5625 24.5469 24.5313 24.5156 24.5 24.4844 24.3281 24.3125 24.2969 24.2813 24.2656 24.25 24.2344 24.2188 24.2031 24.2031 24.1875 24.1719 24.3125 24.2969 24.2813 24.2656 24.25 24.25 24.2344 24.2188 24.2031 24.2031 24.1875 24.1719 24.1563 24.1563 24.1406 24.125 24.125 24.1094 24.1094 24.0938 24.0781 24.0781 24.0625 24.0625 24.0469 24.0313 24.0313 24.0156 24.0156 24 24 23.9844 23.9844 23.9688 23.9688 23.9688 23.9531 23.9531 23.9375 23.9375 23.9219 23.9219 23.9219 23.9063 23.9063 23.9063 23.8906 23.8906 23.8906 23.8906 23.875 23.875 23.875 23.875 23.8594 23.8594 23.8594 23.8594 23.8594 23.8594 23.7031 23.7031 23.7031 23.7031 23.7031 23.6875 23.6875 23.6875 23.6875 23.6875 23.6875 23.6875 23.6875 23.8438 23.8438 23.8438 23.8438 23.8438 23.8438 23.8438 23.8438 23.8438 23.8438 23.8438 23.8594 23.8594 23.8594 23.8594 23.8594 23.7188 23.7188 23.7344 23.7344 23.7344 23.7344 23.75 23.75 23.75 23.9063 23.9063 23.9219 23.9219 23.9219 23.9375 23.9375 23.9375 23.9531 23.9531 23.9688 23.9688 23.9844 23.9844 24 24 23.8594 23.875 23.875 23.8906 23.8906 23.9063 23.9063 23.9219 23.9375 23.9375 23.9531 23.9531 24.125 24.125 24.1406 24.1563 24.1563 24.1719 24.1875 24.1875 24.2031 24.2188 24.2344 24.2344 24.25 24.2656 24.2813 24.2969 24.2344 24.1719 24.1875 24.2031 24.2031 24.2188 24.2344 24.25 24.2656 24.2813 24.4531 24.4531 24.4688 24.4844 24.5 24.5156 24.5313 24.5625 24.5781 24.5938 24.6094 24.625 24.6406 24.6563 24.6719 24.6094 24.5625 24.5781 24.5938 24.6094 24.625 24.6406 24.6719 24.6875 24.7031 24.7188 24.7344 24.7656 24.9375 24.9531 24.9688 25 25.0156 25.0313 25.0625 25.0781 25.0938 25.125 25.1406 25.1563 25.1875 25.2031 25.2344 25.25 25.2656 25.2969 25.3125 25.3438 25.3594 25.3906 25.4063 25.4375 25.4531 25.4844 25.5 25.5313 25.5625 25.5781 25.6094 25.625 25.6563 25.6875 25.7031 25.7344 25.75 25.7813 25.8125 25.8281 25.8594 25.8906 25.9063 25.9375 25.9688 26 26.0156 26.0469 26.0781 26.1094 26.125 26.1563 26.1875 26.2188 26.25 26.2813 26.2969 26.3281 26.3125 26.2344 26.25 26.2813 26.3125 26.3438 26.375 26.4063 26.4375 26.4688 26.5 26.5313 26.7188 26.75 26.7813
65504 65504 65504 65504 65504 65504 65504 65504 65504 65504 65504 65504 65504 65504 65504 65504 65504 65504 65504 65504 65504 65504 65504 65504 65504 65504 65504 65504 65504 65504 65504 65504 65504 65504 65504 65504 65504 65504 65504 65504 65504 65504 65504 65504 65504 65504 65504 65504 65504 65504 65504 65504 65504 65504 65504 65504 65504 65504 65504 65504 65504 65504 65504 65504 65504 65504 65504 65504 65504 65504 65504 65504 65504 65504 65504 65504 65504 65504 65504 65504 65504 65504 65504 65504 65504 65504 65504 65504 65504 65504 65504 65504 65504 65504 65504 65504 65504 65504 65504 65504 65504 65504 65504 65504 65504 65504 65504 65504 65504 65504 65504 65504 65504 65504 25.4219 25.3906 25.3594 25.3438 25.3125 25.2969 25.2813 25.25 25.2344 25.2031 25.1875 25.1563 25.1406 25.1094 25.25 25.2344 25.2031 25.1875 25.1563 25.1406 25.125 25.0938 25.0781 25.0625 25.0313 25.0156 25 24.9844 24.9531 24.9375 24.9219 24.75 24.7344 24.7031 24.6875 24.6719 24.6563 24.6406 24.6094 24.5938 24.5938 24.7188 24.7031 24.6719 24.6563 24.6406 24.625 24.6094 24.5938 24.5781 24.5625 24.5469 24.5313 24.5156 24.5 24.4844 24.4688 24.2969 24.2813 24.2656 24.25 24.25 24.2344 24.2188 24.2031 24.1875 24.1719 24.1563 24.1406 24.2813 24.2656 24.25 24.25 24.2344 24.2188 24.2031 24.2031 24.1875 24.1719 24.1563 24.1563 24.1406 24.125 24.125 24.1094 24.0938 24.0938 24.0781 24.0625 24.0625 24.0469 24.0469 24.0313 24.0156 24.0156 24 24 23.9844 23.9844 23.9688 23.9688 23.9531 23.9531 23.9375 23.9375 23.9219 23.9219 23.9219 23.9063 23.9063 23.9063 23.8906 23.8906 23.875 23.875 23.875 23.875 23.8594 23.8594 23.8594 23.8438 23.8438 23.8438 23.8438 23.8438 23.8281 23.8281 23.8281 23.8281 23.6719 23.6719 23.6719 23.6719 23.6719 23.6719 23.6719 23.6719 23.6719 23.6719 23.6719 23.6719 23.6719 23.8125 23.8125 23.8125 23.8125 23.8125 23.8125 23.8125 23.8125 23.8281 23.8281 23.8281 23.8281 23.8281 23.8281 23.8281 23.8438 23.6875 23.7031 23.7031 23.7031 23.7031 23.7188 23.7188 23.7188 23.7344 23.875 23.8906 23.8906 23.8906 23.9063 23.9063 23.9063 23.9219 23.9219 23.9375 23.9375 23.9531 23.9531 23.9531 23.9688 23.9688 23.8438 23.8438 23.8594 23.8594 23.875 23.875 23.8906 23.8906 23.9063 23.9219 23.9219 23.9375 24.0938 24.1094 24.1094 24.125 24.1406 24.1406 24.1563 24.1719 24.1875 24.1875 24.2031 24.2188 24.2344 24.2344 24.25 24.2656 24.2188 24.1406 24.1563 24.1719 24.1875 24.2031 24.2188 24.2344 24.2344 24.25 24.4219 24.4375 24.4531 24.4688 24.4844 24.5 24.5156 24.5313 24.5469 24.5625 24.5781 24.5938 24.6094 24.625 24.6563 24.5781 24.5313 24.5469 24.5625 24.5781 24.6094 24.625 24.6406 24.6563 24.6719 24.7031 24.7188 24.7344 24.9063 24.9375 24.9531 24.9688 24.9844 25.0156 25.0313 25.0469 25.0781 25.0938 25.125 25.1406 25.1563 25.1875 25.2031 25.2344 25.25 25.2656 25.2969 25.3125 25.3438 25.3594 25.3906 25.4063 25.4375 25.4531 25.4844 25.5156 25.5313 25.5625 25.5781 25.6094 25.625 25.6563 25.6875 25.7031 25.7344 25.7656 25.7813 25.8125 25.8438 25.8594 25.8906 25.9219 25.9375 25.9688 26 26.0313 26.0469 26.0781 26.1094 26.1406 26.1719 26.1875 26.2188 26.25 26.2813 26.3125 26.2813 26.2031 26.2344 26.2656 26.2969 26.3281 26.3594 26.375 26.4063 26.4375 26.4688 26.5 26.7031 26.7344 26.7656
65504 65504 65504 65504 65504 65504 65504 65504 65504 65504 65504 65504 65504 65504 65504 65504 65504 65504 65504 65504 65504 65504 65504 65504 65504 65504 65504 65504 65504 65504 65504 65504 65504 65504 65504 65504 65504 65504 65504 65504 65504 65504 65504 65504 65504 65504 65504 65504 65504 65504 65504 65504 65504 65504 65504 65504 65504 65504 65504 65504 65504 65504 65504 65504 65504 65504 65504 65504 65504 65504 65504 65504 65504 65504 65504 65504 65504 65504 65504 65504 65504 65504 65504 65504 65504 65504 65504 65504 65504 65504 65504 65504 65504 65504 65504 65504 65504 65504 65504 65504 65504 65504 65504 65504 65504 65504 65504 65504 65504 65504 65504 65504 65504 65504 65504 25.375 25.3438 25.3281 25.2969 25.2813 25.25 25.2344 25.2031 25.1875 25.1563 25.1406 25.1094 25.0938 25.2344 25.2031 25.1875 25.1563 25.1406 25.125 25.0938 25.0781 25.0625 25.0313 25.0156 25 24.9688 24.9531 24.9375 24.9219 24.8906 24.7188 24.7031 24.6875 24.6719 24.6406 24.625 24.6094 24.5938 24.5781 24.5781 24.6875 24.6719 24.6563 24.6406 24.625 24.6094 24.5938 24.5625 24.5469 24.5313 24.5156 24.5 24.4844 24.4688 24.4531 24.4375 24.2813 24.2656 24.25 24.2344 24.2188 24.2031 24.1875 24.1719 24.1563 24.1563 24.1406 24.125 24.2656 24.25 24.2344 24.2188 24.2031 24.2031 24.1875 24.1719 24.1563 24.1563 24.1406 24.125 24.1094 24.1094 24.0938 24.0781 24.0781 24.0625 24.0469 24.0469 24.0313 24.0313 24.0156 24 24 23.9844 23.9844 23.9688 23.9688 23.9531 23.9531 23.9375 23.9375 23.9219 23.9219 23.9063 23.9063 23.8906 23.8906 23.8906 23.875 23.875 23.875 23.8594 23.8594 23.8594 23.8438 23.8438 23.8438 23.8281 23.8281 23.8281 23.8281 23.8125 23.8125 23.8125 23.8125 23.8125 23.7969 23.7969 23.6563 23.6563 23.6563 23.6406 23.6406 23.6406 23.6406 23.6406 23.6406 23.6406 23.6406 23.6406 23.6406 23.7813 23.7813 23.7813 23.7969 23.7969 23.7969 23.7969 23.7969 23.7969 23.7969 23.7969 23.7969 23.8125 23.8125 23.8125 23.8125 23.6719 23.6719 23.6719 23.6875 23.6875 23.6875 23.6875 23.7031 23.7031 23.8594 23.8594 23.8594 23.875 23.875 23.875 23.8906 23.8906 23.9063 23.9063 23.9063 23.9219 23.9219 23.9375 23.9375 23.9531 23.8125 23.8125 23.8281 23.8438 23.8438 23.8594 23.8594 23.875 23.875 23.8906 23.9063 23.9063 24.0625 24.0781 24.0938 24.0938 24.1094 24.125 24.1406 24.1406 24.1563 24.1719 24.1875 24.1875 24.2031 24.2188 24.2344 24.25 24.1875 24.125 24.1406 24.1406 24.1563 24.1719 24.1875 24.2031 24.2188 24.2344 24.3906 24.4063 24.4219 24.4375 24.4531 24.4688 24.4844 24.5 24.5156 24.5469 24.5625 24.5781 24.5938 24.6094 24.625 24.5469 24.5156 24.5313 24.5469 24.5625 24.5781 24.5938 24.625 24.6406 24.6563 24.6719 24.6875 24.7188 24.8906 24.9063 24.9219 24.9531 24.9688 24.9844 25.0156 25.0313 25.0469 25.0781 25.0938 25.1094 25.1406 25.1563 25.1875 25.2031 25.2188 25.25 25.2656 25.2969 25.3125 25.3438 25.3594 25.3906 25.4063 25.4375 25.4531 25.4844 25.5156 25.5313 25.5625 25.5781 25.6094 25.6406 25.6563 25.6875 25.7031 25.7344 25.7656 25.7813 25.8125 25.8438 25.875 25.8906 25.9219 25.9531 25.9844 26 26.0313 26.0625 26.0938 26.1094 26.1406 26.1719 26.2031 26.2344 26.2656 26.2813 26.2656 26.1875 26.2188 26.2344 26.2656 26.2969 26.3281 26.3594 26.3906 26.4219 26.4531 26.4844 26.6719 26.7031 26.7344
65504 65504 65504 65504 65504 65504 65504 65504 65504 65504 65504 65504 65504 65504 65504 65504 65504 65504 65504 65504 65504 65504 65504 65504 65504 65504 65504 65504 65504 65504 65504 65504 65504 65504 65504 65504 65504 65504 65504 65504 65504 65504 65504 65504 65504 65504 65504 65504 65504 65504 65504 65504 65504 65504 65504 65504 65504 65504 65504 65504 65504 65504 65504 65504 65504 65504 65504 65504 65504 65504 65504 65504 65504 65504 65504 65504 65504 65504 65504 65504 65504 65504 65504 65504 65504 65504 65504 65504 65504 65504 65504 65504 65504 65504 65504 65504 65504 65504 65504 65504 65504 65504 65504 65504 65504 65504 65504 65504 65504 65504 65504 65504 65504 65504 65504 25.3438 25.3281 25.2969 25.2813 25.25 25.2344 25.2031 25.1875 25.1563 25.1406 25.1094 25.0938 25.0781 25.2031 25.1875 25.1563 25.1406 25.125 25.0938 25.0781 25.0469 25.0313 25.0156 25 24.9688 24.9531 24.9375 24.9063 24.8906 24.875 24.7031 24.6875 24.6563 24.6406 24.625 24.6094 24.5938 24.5625 24.5469 24.5469 24.6719 24.6563 24.625 24.6094 24.5938 24.5781 24.5625 24.5469 24.5313 24.5156 24.5 24.4844 24.4688 24.4531 24.4375 24.4219 24.25 24.2344 24.2188 24.2031 24.2031 24.1875 24.1719 24.1563 24.1406 24.125 24.1094 24.0938 24.2344 24.2188 24.2031 24.2031 24.1875 24.1719 24.1563 24.1406 24.1406 24.125 24.1094 24.1094 24.0938 24.0781 24.0625 24.0625 24.0469 24.0313 24.0313 24.0156 24.0156 24 23.9844 23.9844 23.9688 23.9688 23.9531 23.9531 23.9375 23.9375 23.9219 23.9219 23.9063 23.9063 23.8906 23.8906 23.875 23.875 23.875 23.8594 23.8594 23.8438 23.8438 23.8438 23.8281 23.8281 23.8281 23.8125 23.8125 23.8125 23.8125 23.7969 23.7969 23.7969 23.7969 23.7813 23.7813 23.7813 23.7813 23.7813 23.625 23.625 23.625 23.625 23.625 23.625 23.625 23.625 23.625 23.625 23.6094 23.6094 23.6094 23.7656 23.7656 23.7656 23.7656 23.7656 23.7656 23.7656 23.7656 23.7656 23.7656 23.7813 23.7813 23.7813 23.7813 23.7813 23.7813 23.6406 23.6563 23.6563 23.6563 23.6563 23.6719 23.6719 23.6719 23.6719 23.8281 23.8281 23.8438 23.8438 23.8438 23.8594 23.8594 23.875 23.875 23.875 23.8906 23.8906 23.9063 23.9063 23.9219 23.9219 23.7813 23.7969 23.7969 23.8125 23.8281 23.8281 23.8438 23.8438 23.8594 23.8594 23.875 23.8906 24.0469 24.0469 24.0625 24.0781 24.0938 24.0938 24.1094 24.125 24.125 24.1406 24.1563 24.1719 24.1875 24.1875 24.2031 24.2188 24.1563 24.0938 24.1094 24.125 24.1406 24.1563 24.1719 24.1719 24.1875 24.2031 24.375 24.3906 24.4063 24.4219 24.4375 24.4531 24.4688 24.4844 24.5 24.5156 24.5313 24.5469 24.5625 24.5781 24.5938 24.5156 24.4844 24.5 24.5156 24.5313 24.5625 24.5781 24.5938 24.6094 24.625 24.6563 24.6719 24.6875 24.8594 24.875 24.9063 24.9219 24.9375 24.9688 24.9844 25 25.0313 25.0469 25.0625 25.0938 25.1094 25.1406 25.1563 25.1875 25.2031 25.2188 25.25 25.2656 25.2969 25.3125 25.3438 25.3594 25.3906 25.4063 25.4375 25.4688 25.4844 25.5156 25.5313 25.5625 25.5781 25.6094 25.6406 25.6563 25.6875 25.7188 25.7344 25.7656 25.7969 25.8125 25.8438 25.875 25.9063 25.9219 25.9531 25.9844 26.0156 26.0313 26.0625 26.0938 26.125 26.1563 26.1719 26.2031 26.2344 26.2656 26.2344 26.1563 26.1875 26.2188 26.25 26.2813 26.3125 26.3438 26.375 26.4063 26.4375 26.4531 26.6563 26.6875 26.7188
65504 65504 65504 65504 65504 65504 65504 65504 65504 65504 65504 65504 65504 65504 65504 65504 65504 65504 65504 65504 65504 65504 65504 65504 65504 65504 65504 65504 65504 65504 65504 65504 65504 65504 65504 65504 65504 65504 65504 65504 65504 65504 65504 65504 65504 65504 65504 65504 65504 65504 65504 65504 65504 65504 65504 65504 65504 65504 65504 65504 65504 65504 65504 65504 65504 65504 65504 65504 65504 65504 65504 65504 65504 65504 65504 65504 65504 65504 65504 65504 65504 65504 65504 65504 65504 65504 65504 65504 65504 65504 65504 65504 65504 65504 65504 65504 65504 65504 65504 65504 65504 65504 65504 65504 65504 65504 65504 65504 65504 65504 65504 65504 65504 65504 65504 25.3281 25.2969 25.2813 25.25 25.2344 25.2031 25.1875 25.1563 25.1406 25.1094 25.0938 25.0781 25.0469 25.1875 25.1563 25.1406 25.1094 25.0938 25.0781 25.0469 25.0313 25.0156 24.9844 24.9688 24.9531 24.9219 24.9063 24.8906 24.875 24.8438 24.6719 24.6563 24.6406 24.625 24.5938 24.5781 24.5625 24.5469 24.5313 24.5156 24.6406 24.625 24.6094 24.5938 24.5781 24.5625 24.5469 24.5313 24.5 24.4844 24.4688 24.4531 24.4375 24.4219 24.4063 24.3906 24.2344 24.2188 24.2031 24.1875 24.1719 24.1563 24.1406 24.125 24.1094 24.1094 24.0938 24.0781 24.2188 24.2031 24.1875 24.1719 24.1563 24.1406 24.1406 24.125 24.1094 24.0938 24.0938 24.0781 24.0625 24.0625 24.0469 24.0313 24.0313 24.0156 24 24 23.9844 23.9688 23.9688 23.9531 23.9531 23.9375 23.9375 23.9219 23.9219 23.9063 23.9063 23.8906 23.8906 23.875 23.875 23.8594 23.8594 23.8438 23.8438 23.8438 23.8281 23.8281 23.8125 23.8125 23.8125 23.7969 23.7969 23.7969 23.7969 23.7813 23.7813 23.7813 23.7813 23.7656 23.7656 23.7656 23.7656 23.75 23.75 23.75 23.6094 23.6094 23.5938 23.5938 23.5938 23.5938 23.5938 23.5938 23.5938 23.5938 23.5938 23.5938 23.5938 23.7344 23.7344 23.7344 23.7344 23.7344 23.75 23.75 23.75 23.75 23.75 23.75 23.75 23.75 23.7656 23.7656 23.7656 23.625 23.625 23.625 23.625 23.6406 23.6406 23.6406 23.6563 23.6563 23.8125 23.8125 23.8125 23.8281 23.8281 23.8281 23.8438 23.8438 23.8438 23.8594 23.8594 23.875 23.875 23.8906 23.8906 23.9063 23.7656 23.7656 23.7813 23.7813 23.7969 23.7969 23.8125 23.8281 23.8281 23.8438 23.8438 23.8594 24.0156 24.0313 24.0469 24.0469 24.0625 24.0781 24.0781 24.0938 24.1094 24.125 24.125 24.1406 24.1563 24.1719 24.1875 24.1875 24.125 24.0781 24.0781 24.0938 24.1094 24.125 24.1406 24.1563 24.1719 24.1875 24.3438 24.3594 24.375 24.3906 24.4063 24.4219 24.4375 24.4531 24.4688 24.4844 24.5156 24.5313 24.5469 24.5625 24.5781 24.5 24.4531 24.4844 24.5 24.5156 24.5313 24.5469 24.5781 24.5938 24.6094 24.625 24.6406 24.6719 24.8438 24.8594 24.875 24.9063 24.9219 24.9375 24.9688 24.9844 25 25.0313 25.0469 25.0625 25.0938 25.1094 25.1406 25.1563 25.1875 25.2031 25.2188 25.25 25.2656 25.2969 25.3125 25.3438 25.3594 25.3906 25.4219 25.4375 25.4688 25.4844 25.5156 25.5313 25.5625 25.5938 25.6094 25.6406 25.6719 25.6875 25.7188 25.75 25.7656 25.7969 25.8281 25.8438 25.875 25.9063 25.9375 25.9531 25.9844 26.0156 26.0469 26.0781 26.0938 26.125 26.1563 26.1875 26.2188 26.25 26.2031 26.1406 26.1719 26.2031 26.2344 26.25 26.2813 26.3125 26.3438 26.375 26.4063 26.4375 26.6406 26.6719 26.7031
65504 65504 65504 65504 65504 65504 65504 65504 65504 65504 65504 65504 65504 65504 65504 65504 65504 65504 65504 65504 65504 65504 65504 65504 65504 65504 65504 65504 65504 65504 65504 65504 65504 65504 65504 65504 65504 65504 65504 65504 65504 65504 65504 65504 65504 65504 65504 65504 65504 65504 65504 65504 65504 65504 65504 65504 65504 65504 65504 65504 65504 65504 65504 65504 65504 65504 65504 65504 65504 65504 65504 65504 65504 65504 65504 65504 65504 65504 65504 65504 65504 65504 65504 65504 65504 65504 65504 65504 65504 65504 65504 65504 65504 65504 65504 65504 65504 65504 65504 65504 65504 65504 65504 65504 65504 65504 65504 65504 65504 65504 65504 65504 65504 65504 65504 25.2969 25.2813 25.25 25.2344 25.2031 25.1875 25.1563 25.1406 25.1094 25.0938 25.0781 25.0469 25.0313 25.1563 25.1406 25.1094 25.0938 25.0781 25.0469 25.0313 25.0156 24.9844 24.9688 24.9531 24.9219 24.9063 24.8906 24.8594 24.8438 24.8281 24.6563 24.6406 24.6094 24.5938 24.5781 24.5625 24.5469 24.5313 24.5 24.4844 24.625 24.6094 24.5781 24.5625 24.5469 24.5313 24.5156 24.5 24.4844 24.4688 24.4531 24.4375 24.4219 24.4063 24.3906 24.375 24.2031 24.1875 24.1719 24.1563 24.1563 24.1406 24.125 24.1094 24.0938 24.0781 24.0625 24.0469 24.1875 24.1719 24.1563 24.1563 24.1406 24.125 24.1094 24.0938 24.0938 24.0781 24.0625 24.0469 24.0469 24.0313 24.0156 24.0156 24 23.9844 23.9844 23.9688 23.9688 23.9531 23.9375 23.9375 23.9219 23.9219 23.9063 23.9063 23.8906 23.875 23.875 23.875 23.8594 23.8594 23.8438 23.8438 23.8281 23.8281 23.8125 23.8125 23.8125 23.7969 23.7969 23.7969 23.7813 23.7813 23.7813 23.7656 23.7656 23.7656 23.75 23.75 23.75 23.75 23.75 23.7344 23.7344 23.7344 23.7344 23.7344 23.5781 23.5781 23.5781 23.5781 23.5781 23.5781 23.5781 23.5625 23.5625 23.5625 23.5625 23.5625 23.5625 23.7188 23.7188 23.7188 23.7188 23.7188 23.7188 23.7188 23.7188 23.7188 23.7188 23.7188 23.7344 23.7344 23.7344 23.7344 23.7344 23.5938 23.5938 23.6094 23.6094 23.6094 23.6094 23.625 23.625 23.625 23.7813 23.7813 23.7969 23.7969 23.7969 23.8125 23.8125 23.8281 23.8281 23.8281 23.8438 23.8438 23.8594 23.8594 23.875 23.875 23.7344 23.75 23.75 23.7656 23.7656 23.7813 23.7969 23.7969 23.8125 23.8125 23.8281 23.8438 24 24 24.0156 24.0313 24.0313 24.0469 24.0625 24.0781 24.0781 24.0938 24.1094 24.125 24.125 24.1406 24.1563 24.1719 24.0938 24.0469 24.0625 24.0781 24.0938 24.1094 24.1094 24.125 24.1406 24.1563 24.3281 24.3438 24.3594 24.375 24.3906 24.4063 24.4219 24.4375 24.4531 24.4688 24.4844 24.5 24.5156 24.5313 24.5469 24.4688 24.4375 24.4531 24.4688 24.4844 24.5156 24.5313 24.5469 24.5625 24.5781 24.6094 24.625 24.6406 24.8125 24.8438 24.8594 24.875 24.8906 24.9219 24.9375 24.9531 24.9844 25 25.0313 25.0469 25.0625 25.0938 25.1094 25.1406 25.1563 25.1875 25.2031 25.2188 25.25 25.2656 25.2969 25.3125 25.3438 25.375 25.3906 25.4219 25.4375 25.4688 25.4844 25.5156 25.5469 25.5625 25.5938 25.625 25.6406 25.6719 25.7031 25.7188 25.75 25.7813 25.7969 25.8281 25.8594 25.8906 25.9063 25.9375 25.9688 26 26.0156 26.0469 26.0781 26.1094 26.1406 26.1563 26.1875 26.2188 26.1875 26.125 26.1406 26.1719 26.2031 26.2344 26.2656 26.2969 26.3281 26.3594 26.3906 26.4219 26.6094 26.6406 26.6719
65504 65504 65504 65504 65504 65504 65504 65504 65504 65504 65504 65504 65504 65504 65504 65504 65504 65504 65504 65504 65504 65504 65504 65504 65504 65504 65504 65504 65504 65504 65504 65504 65504 65504 65504 65504 65504 65504 65504 65504 65504 65504 65504 65504 65504 65504 65504 65504 65504 65504 65504 65504 65504 65504 65504 65504 65504 65504 65504 65504 65504 65504 65504 65504 65504 65504 65504 65504 65504 65504 65504 65504 65504 65504 65504 65504 65504 65504 65504 65504 65504 65504 65504 65504 65504 65504 65504 65504 65504 65504 65504 65504 65504 65504 65504 65504 65504 65504 65504 65504 65504 65504 65504 65504 65504 65504 65504 65504 65504 65504 65504 65504 65504 65504 65504 25.2813 25.25 25.2344 25.2031 25.1875 25.1563 25.1406 25.125 25.0938 25.0781 25.0469 25.0313 25 25.125 25.1094 25.0938 25.0781 25.0469 25.0313 25.0156 24.9844 24.9688 24.9531 24.9219 24.9063 24.8906 24.8594 24.8438 24.8281 24.7969 24.625 24.6094 24.5938 24.5781 24.5625 24.5313 24.5156 24.5 24.4844 24.4688 24.5938 24.5781 24.5625 24.5469 24.5313 24.5156 24.5 24.4844 24.4688 24.4375 24.4219 24.4063 24.3906 24.375 24.3594 24.3438 24.1875 24.1719 24.1563 24.1406 24.125 24.1094 24.0938 24.0781 24.0625 24.0625 24.0469 24.0313 24.1719 24.1563 24.1406 24.125 24.1094 24.0938 24.0938 24.0781 24.0625 24.0469 24.0469 24.0313 24.0156 24.0156 24 23.9844 23.9844 23.9688 23.9531 23.9531 23.9375 23.9219 23.9219 23.9063 23.9063 23.8906 23.8906 23.875 23.8594 23.8594 23.8438 23.8438 23.8438 23.8281 23.8281 23.8125 23.8125 23.7969 23.7969 23.7813 23.7813 23.7813 23.7656 23.7656 23.7656 23.75 23.75 23.75 23.7344 23.7344 23.7344 23.7344 23.7188 23.7188 23.7188 23.7188 23.7188 23.7031 23.7031 23.7031 23.5625 23.5469 23.5469 23.5469 23.5469 23.5469 23.5469 23.5469 23.5469 23.5469 23.5469 23.5469 23.5469 23.6875 23.6875 23.6875 23.6875 23.6875 23.6875 23.6875 23.7031 23.7031 23.7031 23.7031 23.7031 23.7031 23.7031 23.7188 23.7188 23.5781 23.5781 23.5781 23.5781 23.5938 23.5938 23.5938 23.5938 23.6094 23.75 23.7656 23.7656 23.7656 23.7813 23.7813 23.7969 23.7969 23.7969 23.8125 23.8125 23.8281 23.8281 23.8438 23.8438 23.8594 23.7188 23.7188 23.7344 23.7344 23.75 23.75 23.7656 23.7813 23.7813 23.7969 23.7969 23.8125 23.9688 23.9844 23.9844 24 24.0156 24.0313 24.0313 24.0469 24.0625 24.0781 24.0781 24.0938 24.1094 24.125 24.1406 24.1406 24.0625 24.0313 24.0313 24.0469 24.0625 24.0781 24.0938 24.1094 24.125 24.1406 24.2969 24.3125 24.3281 24.3438 24.3594 24.375 24.3906 24.4063 24.4219 24.4375 24.4531 24.4844 24.5 24.5156 24.5313 24.4375 24.4063 24.4375 24.4531 24.4688 24.4844 24.5 24.5313 24.5469 24.5625 24.5781 24.5938 24.625 24.7969 24.8125 24.8281 24.8594 24.875 24.8906 24.9219 24.9375 24.9531 24.9844 25 25.0156 25.0469 25.0625 25.0938 25.1094 25.1406 25.1563 25.1875 25.2031 25.2344 25.25 25.2813 25.2969 25.3281 25.3438 25.375 25.3906 25.4219 25.4375 25.4688 25.5 25.5156 25.5469 25.5625 25.5938 25.625 25.6406 25.6719 25.7031 25.7188 25.75 25.7813 25.8125 25.8281 25.8594 25.8906 25.9219 25.9375 25.9688 26 26.0313 26.0625 26.0781 26.1094 26.1406 26.1719 26.2031 26.1563 26.0938 26.125 26.1563 26.1875 26.2188 26.25 26.2813 26.3125 26.3281 26.3594 26.3906 26.5938 26.625 26.6563
65504 65504 65504 65504 65504 65504 65504 65504 65504 65504 65504 65504 65504 65504 65504 65504 65504 65504 65504 65504 65504 65504 65504 65504 65504 65504 65504 65504 65504 65504 65504 65504 65504 65504 65504 65504 65504 65504 65504 65504 65504 65504 65504 65504 65504 65504 65504 65504 65504 65504 65504 65504 65504 65504 65504 65504 65504 65504 65504 65504 65504 65504 65504 65504 65504 65504 65504 65504 65504 65504 65504 65504 65504 65504 65504 65504 65504 65504 65504 65504 65504 65504 65504 65504 65504 65504 65504 65504 65504 65504 65504 65504 65504 65504 65504 65504 65504 65504 65504 65504 65504 65504 65504 65504 65504 65504 65504 65504 65504 65504 65504 65504 65504 65504 65504 25.2656 25.2344 25.2188 25.1875 25.1719 25.1406 25.125 25.0938 25.0781 25.0469 25.0313 25 24.9844 25.1094 25.0938 25.0781 25.0469 25.0313 25 24.9844 24.9688 24.9375 24.9219 24.9063 24.875 24.8594 24.8438 24.8281 24.7969 24.7813 24.6094 24.5938 24.5781 24.5469 24.5313 24.5156 24.5 24.4844 24.4531 24.4375 24.5781 24.5625 24.5469 24.5156 24.5 24.4844 24.4688 24.4531 24.4375 24.4219 24.4063 24.3906 24.375 24.3594 24.3438 24.3281 24.1563 24.1406 24.125 24.1094 24.1094 24.0938 24.0781 24.0625 24.0469 24.0313 24.0156 24 24.1406 24.125 24.1094 24.1094 24.0938 24.0781 24.0625 24.0469 24.0469 24.0313 24.0156 24 24 23.9844 23.9688 23.9688 23.9531 23.9375 23.9375 23.9219 23.9063 23.9063 23.8906 23.8906 23.875 23.875 23.8594 23.8438 23.8438 23.8281 23.8281 23.8125 23.8125 23.7969 23.7969 23.7969 23.7813 23.7813 23.7656 23.7656 23.7656 23.75 23.75 23.7344 23.7344 23.7344 23.7188 23.7188 23.7188 23.7188 23.7031 23.7031 23.7031 23.7031 23.6875 23.6875 23.6875 23.6875 23.6875 23.6875 23.5313 23.5313 23.5313 23.5313 23.5313 23.5313 23.5156 23.5156 23.5156 23.5156 23.5156 23.5156 23.5156 23.6719 23.6719 23.6719 23.6719 23.6719 23.6719 23.6719 23.6719 23.6719 23.6719 23.6719 23.6875 23.6875 23.6875 23.6875 23.6875 23.5469 23.5469 23.5625 23.5625 23.5625 23.5625 23.5781 23.5781 23.5781 23.7344 23.7344 23.75 23.75 23.75 23.7656 23.7656 23.7656 23.7813 23.7813 23.7969 23.7969 23.8125 23.8125 23.8281 23.8281 23.6875 23.7031 23.7031 23.7188 23.7188 23.7344 23.7344 23.75 23.7656 23.7656 23.7813 23.7969 23.9531 23.9531 23.9688 23.9844 23.9844 24 24.0156 24.0313 24.0313 24.0469 24.0625 24.0781 24.0781 24.0938 24.1094 24.125 24.0469 24 24.0156 24.0313 24.0469 24.0625 24.0625 24.0781 24.0938 24.1094 24.2813 24.2969 24.3125 24.3281 24.3438 24.3594 24.375 24.3906 24.4063 24.4219 24.4375 24.4531 24.4688 24.4844 24.5 24.4063 24.3906 24.4063 24.4219 24.4375 24.4688 24.4844 24.5 24.5156 24.5469 24.5625 24.5781 24.5938 24.7656 24.7969 24.8125 24.8281 24.8438 24.875 24.8906 24.9063 24.9375 24.9531 24.9844 25 25.0156 25.0469 25.0625 25.0938 25.1094 25.1406 25.1563 25.1875 25.2031 25.2344 25.25 25.2813 25.2969 25.3281 25.3438 25.375 25.3906 25.4219 25.4531 25.4688 25.5 25.5156 25.5469 25.5781 25.5938 25.625 25.6563 25.6719 25.7031 25.7344 25.75 25.7813 25.8125 25.8438 25.8594 25.8906 25.9219 25.9531 25.9844 26 26.0313 26.0625 26.0938 26.125 26.1563 26.1719 26.125 26.0781 26.1094 26.1406 26.1563 26.1875 26.2188 26.25 26.2813 26.3125 26.3438 26.375 26.5625 26.5938 26.625
65504 65504 65504 65504 65504 65504 65504 65504 65504 65504 65504 65504 65504 65504 65504 65504 65504 65504 65504 65504 65504 65504 65504 65504 65504 65504 65504 65504 65504 65504 65504 65504 65504 65504 65504 65504 65504 65504 65504 65504 65504 65504 65504 65504 65504 65504 65504 65504 65504 65504 65504 65504 65504 65504 65504 65504 65504 65504 65504 65504 65504 65504 65504 65504 65504 65504 65504 65504 65504 65504 65504 65504 65504 65504 65504 65504 65504 65504 65504 65504 65504 65504 65504 65504 65504 65504 65504 65504 65504 65504 65504 65504 65504 65504 65504 65504 65504 65504 65504 65504 65504 65504 65504 65504 65504 65504 65504 65504 65504 65504 65504 65504 65504 65504 65504 25.2344 25.2188 25.1875 25.1719 25.1406 25.125 25.0938 25.0781 25.0469 25.0313 25 24.9844 24.9688 25.0781 25.0781 25.0469 25.0313 25 24.9844 24.9688 24.9375 24.9219 24.9063 24.875 24.8594 24.8438 24.8125 24.7969 24.7813 24.7656 24.5938 24.5625 24.5469 24.5313 24.5156 24.5 24.4688 24.4531 24.4375 24.4219 24.5469 24.5313 24.5156 24.5 24.4844 24.4688 24.4531 24.4375 24.4219 24.4063 24.375 24.3594 24.3438 24.3281 24.3125 24.2969 24.2813 24.125 24.1094 24.0938 24.0781 24.0625 24.0469 24.0313 24.0156 24.0156 24 23.9844 24.125 24.1094 24.0938 24.0781 24.0625 24.0469 24.0469 24.0313 24.0156 24 24 23.9844 23.9688 23.9688 23.9531 23.9375 23.9375 23.9219 23.9063 23.9063 23.8906 23.875 23.875 23.8594 23.8594 23.8438 23.8281 23.8281 23.8125 23.8125 23.7969 23.7969 23.7813 23.7813 23.7813 23.7656 23.7656 23.75 23.75 23.7344 23.7344 23.7344 23.7188 23.7188 23.7188 23.7031 23.7031 23.7031 23.6875 23.6875 23.6875 23.6875 23.6719 23.6719 23.6719 23.6719 23.6563 23.6563 23.6563 23.6563 23.5156 23.5 23.5 23.5 23.5 23.5 23.5 23.5 23.5 23.5 23.5 23.5 23.5 23.6406 23.6406 23.6406 23.6406 23.6406 23.6406 23.6406 23.6406 23.6563 23.6563 23.6563 23.6563 23.6563 23.6563 23.6563 23.6719 23.5313 23.5313 23.5313 23.5313 23.5469 23.5469 23.5469 23.5469 23.5625 23.7031 23.7188 23.7188 23.7188 23.7344 23.7344 23.7344 23.75 23.75 23.7656 23.7656 23.7813 23.7813 23.7969 23.7969 23.8125 23.6719 23.6719 23.6875 23.6875 23.7031 23.7031 23.7188 23.7344 23.7344 23.75 23.75 23.7656 23.9219 23.9375 23.9375 23.9531 23.9688 23.9844 23.9844 24 24.0156 24.0313 24.0313 24.0469 24.0625 24.0781 24.0938 24.0938 24.0156 23.9844 23.9844 24 24.0156 24.0313 24.0469 24.0625 24.0781 24.0938 24.25 24.2656 24.2813 24.2969 24.3125 24.3281 24.3438 24.3594 24.375 24.3906 24.4063 24.4375 24.4531 24.4688 24.4844 24.3906 24.375 24.3906 24.4063 24.4219 24.4375 24.4531 24.4844 24.5 24.5156 24.5313 24.5625 24.5781 24.75 24.7656 24.7813 24.8125 24.8281 24.8438 24.875 24.8906 24.9063 24.9375 24.9531 24.9844 25 25.0156 25.0469 25.0625 25.0938 25.1094 25.1406 25.1563 25.1875 25.2031 25.2344 25.25 25.2813 25.2969 25.3281 25.3438 25.375 25.4063 25.4219 25.4531 25.4688 25.5 25.5313 25.5469 25.5781 25.6094 25.625 25.6563 25.6875 25.7031 25.7344 25.7656 25.7969 25.8125 25.8438 25.875 25.9063 25.9219 25.9531 25.9844 26.0156 26.0469 26.0625 26.0938 26.125 26.1563 26.1094 26.0469 26.0781 26.1094 26.1406 26.1719 26.2031 26.2344 26.2656 26.2969 26.3281 26.3594 26.5469 26.5781 26.6094
65504 65504 65504 65504 65504 65504 65504 65504 65504 65504 65504 65504 65504 65504 65504 65504 65504 65504 65504 65504 65504 65504 65504 65504 65504 65504 65504 65504 65504 65504 65504 65504 65504 65504 65504 65504 65504 65504 65504 65504 65504 65504 65504 65504 65504 65504 65504 65504 65504 65504 65504 65504 65504 65504 65504 65504 65504 65504 65504 65504 65504 65504 65504 65504 65504 65504 65504 65504 65504 65504 65504 65504 65504 65504 65504 65504 65504 65504 65504 65504 65504 65504 65504 65504 65504 65504 65504 65504 65504 65504 65504 65504 65504 65504 65504 65504 65504 65504 65504 65504 65504 65504 65504 65504 65504 65504 65504 65504 65504 65504 65504 65504 65504 65504 65504 25.2188 25.1875 25.1719 25.1406 25.125 25.0938 25.0781 25.0469 25.0313 25.0156 24.9844 24.9688 24.9375 25.0469 25.1406 25.1094 25.0938 25.0625 25.0469 25.0156 25 24.9688 24.9531 24.9219 24.9063 24.8906 24.8594 24.8438 24.8125 24.7969 24.5625 24.5469 24.5313 24.5156 24.4844 24.4688 24.4531 24.4375 24.4219 24.3906 24.5781 24.5469 24.5313 24.5156 24.5 24.4844 24.4531 24.4375 24.4219 24.4063 24.3906 24.375 24.3594 24.3281 24.3125 24.2969 24.2813 24.0938 24.0938 24.0781 24.0625 24.0469 24.0313 24.0156 24 23.9844 23.9688 23.9531 24.0938 24.0781 24.0625 24.0625 24.0469 24.0313 24.0156 24 24 23.9844 23.9688 23.9531 23.9531 23.9375 23.9219 23.9219 23.9063 23.8906 23.8906 23.875 23.8594 23.8594 23.8438 23.8438 23.8281 23.8281 23.8125 23.7969 23.7969 23.7813 23.7813 23.7656 23.7656 23.75 23.75 23.75 23.7344 23.7344 23.7188 23.7188 23.7188 23.7031 23.7031 23.6875 23.6875 23.6875 23.6719 23.6719 23.6719 23.6719 23.6563 23.6563 23.6563 23.6563 23.6406 23.6406 23.6406 23.6406 23.6406 23.625 23.4844 23.4844 23.4844 23.4844 23.4844 23.4688 23.4688 23.4688 23.4688 23.4688 23.4688 23.4688 23.4688 23.625 23.625 23.625 23.625 23.625 23.625 23.625 23.625 23.625 23.625 23.625 23.625 23.6406 23.6406 23.6406 23.6406 23.5 23.5 23.5156 23.5156 23.5156 23.5156 23.5313 23.5313 23.5313 23.6875 23.6875 23.6875 23.7031 23.7031 23.7188 23.7188 23.7188 23.7344 23.7344 23.75 23.75 23.7656 23.7656 23.7813 23.7813 23.6406 23.6563 23.6563 23.6719 23.6719 23.6875 23.6875 23.7031 23.7188 23.7188 23.7344 23.75 23.9063 23.9063 23.9219 23.9375 23.9375 23.9531 23.9688 23.9688 23.9844 24 24.0156 24.0313 24.0313 24.0469 24.0625 24.0781 23.9844 23.9531 23.9688 23.9844 24 24.0156 24.0156 24.0313 24.0469 24.0625 24.2344 24.25 24.2656 24.2813 24.2969 24.3125 24.3281 24.3438 24.3594 24.375 24.3906 24.4063 24.4219 24.4375 24.4531 24.3594 24.3438 24.3594 24.375 24.4063 24.4219 24.4375 24.4531 24.4688 24.5 24.5156 24.5313 24.5469 24.7188 24.75 24.7656 24.7813 24.8125 24.8281 24.8438 24.875 24.8906 24.9063 24.9375 24.9531 24.9844 25 25.0156 25.0469 25.0625 25.0938 25.1094 25.1406 25.1563 25.1875 25.2031 25.2344 25.25 25.2813 25.2969 25.3281 25.3594 25.375 25.4063 25.4219 25.4531 25.4844 25.5 25.5313 25.5625 25.5781 25.6094 25.6406 25.6563 25.6875 25.7188 25.7344 25.7656 25.7969 25.8281 25.8438 25.875 25.9063 25.9375 25.9688 25.9844 26.0156 26.0469 26.0781 26.1094 26.1406 26.0781 26.0313 26.0625 26.0938 26.125 26.1563 26.1875 26.2188 26.25 26.2656 26.2969 26.3281 26.5313 26.5625 26.5938
65504 65504 65504 65504 65504 65504 65504 65504 65504 65504 65504 65504 65504 65504 65504 65504 65504 65504 65504 65504 65504 65504 65504 65504 65504 65504 65504 65504 65504 65504 65504 65504 65504 65504 65504 65504 65504 65504 65504 65504 65504 65504 65504 65504 65504 65504 65504 65504 65504 65504 65504 65504 65504 65504 65504 65504 65504 65504 65504 65504 65504 65504 65504 65504 65504 65504 65504 65504 65504 65504 65504 65504 65504 65504 65504 65504 65504 65504 65504 65504 65504 65504 65504 65504 65504 65504 65504 65504 65504 65504 65504 65504 65504 65504 65504 65504 65504 65504 65504 65504 65504 65504 65504 65504 65504 65504 65504 65504 65504 65504 65504 65504 65504 65504 65504 25.2031 25.1719 25.1563 25.125 25.1094 25.0781 25.0625 25.0313 25.0156 24.9844 24.9688 24.9375 24.9219 25.0313 25.2031 25.2813 25.2656 25.2344 25.2188 25.1875 25.1719 25.1406 25.125 25.0938 25.0781 25.0469 25.0313 25.0156 24.9844 24.9688 24.5469 24.5313 24.5 24.4844 24.4688 24.4531 24.4375 24.4063 24.3906 24.375 24.5781 24.7188 24.7031 24.6875 24.6563 24.6406 24.625 24.6094 24.5938 24.5781 24.5469 24.5313 24.5156 24.5 24.4844 24.4688 24.4531 24.0781 24.0625 24.0469 24.0313 24.0156 24 23.9844 23.9844 23.9688 23.9531 23.9375 24.0625 24.0625 24.0469 24.0313 24.0156 24.0156 24 23.9844 23.9688 23.9531 23.9531 23.9375 23.9219 23.9219 23.9063 23.8906 23.8906 23.875 23.8594 23.8594 23.8438 23.8281 23.8281 23.8125 23.8125 23.7969 23.7813 23.7813 23.7656 23.7656 23.75 23.75 23.7344 23.7344 23.7344 23.7188 23.7188 23.7031 23.7031 23.6875 23.6875 23.6875 23.6719 23.6719 23.6719 23.6563 23.6563 23.6563 23.6406 23.6406 23.6406 23.6406 23.625 23.625 23.625 23.625 23.6094 23.6094 23.6094 23.6094 23.4688 23.4531 23.4531 23.4531 23.4531 23.4531 23.4531 23.4531 23.4531 23.4531 23.4531 23.4531 23.4531 23.6719 23.6719 23.6719 23.6719 23.6719 23.6719 23.6719 23.6719 23.6719 23.6719 23.6719 23.6719 23.6719 23.6719 23.6719 23.6719 23.4844 23.4844 23.4844 23.4844 23.5 23.5 23.5 23.5 23.5156 23.7031 23.7031 23.7031 23.7188 23.7188 23.7188 23.7344 23.7344 23.7344 23.75 23.75 23.75 23.7656 23.7656 23.7656 23.7813 23.625 23.625 23.6406 23.6406 23.6563 23.6563 23.6719 23.6875 23.6875 23.7031 23.7031 23.7188 23.875 23.8906 23.8906 23.9063 23.9219 23.9375 23.9375 23.9531 23.9688 23.9844 23.9844 24 24.0156 24.0313 24.0469 24.0469 23.9531 23.9375 23.9375 23.9531 23.9688 23.9844 24 24.0156 24.0313 24.0469 24.2031 24.2188 24.2344 24.25 24.2656 24.2813 24.2969 24.3125 24.3281 24.3438 24.375 24.3906 24.4063 24.4219 24.4375 24.3281 24.3281 24.3438 24.3594 24.375 24.3906 24.4063 24.4375 24.4531 24.4688 24.4844 24.5156 24.5313 24.7031 24.7188 24.7344 24.7656 24.7813 24.7969 24.8281 24.8438 24.875 24.8906 24.9063 24.9375 24.9531 24.9844 25 25.0156 25.0469 25.0625 25.0938 25.1094 25.1406 25.1563 25.1875 25.2031 25.2344 25.25 25.2813 25.3125 25.3281 25.3594 25.375 25.4063 25.4375 25.4531 25.4844 25.5 25.5313 25.5625 25.5938 25.6094 25.6406 25.6719 25.6875 25.7188 25.75 25.7813 25.7969 25.8281 25.8594 25.8906 25.9063 25.9375 25.9688 26 26.0313 26.0625 26.0781 26.1094 26.0469 26.0156 26.0469 26.0781 26.0938 26.125 26.1563 26.1875 26.2188 26.25 26.2813 26.3125 26.5156 26.5313 26.5625
65504 65504 65504 65504 65504 65504 65504 65504 65504 65504 65504 65504 65504 65504 65504 65504 65504 65504 65504 65504 65504 65504 65504 65504 65504 65504 65504 65504 65504 65504 65504 65504 65504 65504 65504 65504 65504 65504 65504 65504 65504 65504 65504 65504 65504 65504 65504 65504 65504 65504 65504 65504 65504 65504 65504 65504 65504 65504 65504 65504 65504 65504 65504 65504 65504 65504 65504 65504 65504 65504 65504 65504 65504 65504 65504 65504 65504 65504 65504 65504 65504 65504 65504 65504 65504 65504 65504 65504 65504 65504 65504 65504 65504 65504 65504 65504 65504 65504 65504 65504 65504 65504 65504 65504 65504 65504 65504 65504 65504 65504 65504 65504 65504 65504 65504 25.1719 25.1563 25.125 25.1094 25.0781 25.0625 25.0313 25.0156 24.9844 24.9688 24.9375 24.9219 24.8906 25 25.1719 25.2813 25.25 25.2344 25.2031 25.1875 25.1719 25.1406 25.125 25.1094 25.0781 25.0625 25.0469 25.0156 25 24.9844 24.5156 24.5 24.4844 24.4688 24.4531 24.4219 24.4063 24.3906 24.375 24.3594 24.5469 24.75 24.7344 24.7188 24.7031 24.6875 24.6719 24.6406 24.625 24.6094 24.5938 24.5781 24.5625 24.5469 24.5313 24.5156 24.5 24.0625 24.0469 24.0313 24.0156 24 23.9844 23.9688 23.9531 23.9375 23.9219 23.9219 24.0469 24.0313 24.0156 24.0156 24 23.9844 23.9688 23.9688 23.9531 23.9375 23.9219 23.9219 23.9063 23.8906 23.875 23.875 23.8594 23.8438 23.8438 23.8281 23.8281 23.8125 23.7969 23.7969 23.7813 23.7813 23.7656 23.75 23.75 23.7344 23.7344 23.7188 23.7188 23.7031 23.7031 23.7031 23.6875 23.6875 23.6719 23.6719 23.6719 23.6563 23.6563 23.6406 23.6406 23.6406 23.625 23.625 23.625 23.625 23.6094 23.6094 23.6094 23.6094 23.5938 23.5938 23.5938 23.5938 23.5938 23.5781 23.4375 23.4375 23.4375 23.4375 23.4375 23.4219 23.4219 23.4219 23.4219 23.4219 23.4219 23.4219 23.4219 23.8281 23.8281 23.8281 23.8281 23.8281 23.8281 23.8281 23.8281 23.8281 23.8281 23.8281 23.8281 23.8281 23.8281 23.8281 23.8281 23.4531 23.4531 23.4531 23.4688 23.4688 23.4688 23.4844 23.4844 23.4844 23.8594 23.8594 23.875 23.875 23.875 23.875 23.8906 23.8906 23.8906 23.9063 23.9063 23.9219 23.9219 23.9219 23.9375 23.8125 23.5938 23.6094 23.6094 23.625 23.625 23.6406 23.6406 23.6563 23.6719 23.6719 23.6875 23.7031 24.0469 24.0469 24.0625 24.0625 24.0781 24.0938 24.0938 24.1094 24.125 24.125 24.1406 24.1563 24.1563 24.1719 24.1875 24.1875 23.9375 23.9063 23.9219 23.9375 23.9531 23.9688 23.9844 23.9844 24 24.0156 24.3281 24.3438 24.3594 24.375 24.3906 24.4063 24.4219 24.4375 24.4531 24.4688 24.4844 24.5 24.5156 24.5313 24.5469 24.2969 24.2969 24.3125 24.3438 24.3594 24.375 24.3906 24.4063 24.4219 24.4531 24.4688 24.4844 24.5 24.6719 24.7031 24.7188 24.7344 24.7656 24.7813 24.7969 24.8281 24.8438 24.8594 24.8906 24.9063 24.9375 24.9531 24.9844 25 25.0156 25.0469 25.0625 25.0938 25.1094 25.1406 25.1563 25.1875 25.2031 25.2344 25.2656 25.2813 25.3125 25.3281 25.3594 25.3906 25.4063 25.4375 25.4531 25.4844 25.5156 25.5313 25.5625 25.5938 25.625 25.6406 25.6719 25.7031 25.7188 25.75 25.7813 25.8125 25.8438 25.8594 25.8906 25.9219 25.9531 25.9844 26 26.0313 26.0625 26.0938 26.0313 25.9844 26.0156 26.0469 26.0781 26.1094 26.1406 26.1719 26.2031 26.2344 26.2656 26.2969 26.5 26.5313 26.5469
65504 65504 65504 65504 65504 65504 65504 65504 65504 65504 65504 65504 65504 65504 65504 65504 65504 65504 65504 65504 65504 65504 65504 65504 65504 65504 65504 65504 65504 65504 65504 65504 65504 65504 65504 65504 65504 65504 65504 65504 65504 65504 65504 65504 65504 65504 65504 65504 65504 65504 65504 65504 65504 65504 65504 65504 65504 65504 65504 65504 65504 65504 65504 65504 65504 65504 65504 65504 65504 65504 65504 65504 65504 65504 65504 65504 65504 65504 65504 65504 65504 65504 65504 65504 65504 65504 65504 65504 65504 65504 65504 65504 65504 65504 65504 65504 65504 65504 65504 65504 65504 65504 65504 65504 65504 65504 65504 65504 65504 65504 65504 65504 65504 65504 65504 25.1563 25.125 25.1094 25.0781 25.0625 25.0313 25.0156 24.9844 24.9688 24.9375 24.9219 24.9063 24.875 24.9688 25.1406 25.25 25.2344 25.2031 25.1875 25.1719 25.1406 25.125 25.1094 25.0781 25.0625 25.0469 25.0156 25 24.9844 24.9531 24.5 24.4844 24.4688 24.4375 24.4219 24.4063 24.3906 24.375 24.3438 24.3281 24.5313 24.7344 24.7188 24.6875 24.6719 24.6563 24.6406 24.625 24.6094 24.5938 24.5781 24.5625 24.5469 24.5313 24.5156 24.5 24.4844 24.0313 24.0156 24 23.9844 23.9688 23.9531 23.9531 23.9375 23.9219 23.9063 23.8906 24.0156 24.0156 24 23.9844 23.9688 23.9688 23.9531 23.9375 23.9219 23.9219 23.9063 23.8906 23.875 23.875 23.8594 23.8438 23.8438 23.8281 23.8125 23.8125 23.7969 23.7813 23.7813 23.7656 23.7656 23.75 23.75 23.7344 23.7188 23.7188 23.7031 23.7031 23.6875 23.6875 23.6875 23.6719 23.6719 23.6563 23.6563 23.6406 23.6406 23.6406 23.625 23.625 23.625 23.6094 23.6094 23.6094 23.5938 23.5938 23.5938 23.5938 23.5781 23.5781 23.5781 23.5781 23.5625 23.5625 23.5625 23.5625 23.4219 23.4063 23.4063 23.4063 23.4063 23.4063 23.4063 23.4063 23.4063 23.4063 23.4063 23.4063 23.4063 23.8281 23.8281 23.8281 23.8281 23.8281 23.8281 23.8281 23.8281 23.8281 23.8281 23.8281 23.8281 23.8438 23.8438 23.8438 23.8438 23.4375 23.4375 23.4375 23.4375 23.4531 23.4531 23.4531 23.4531 23.4688 23.8906 23.8906 23.9063 23.9063 23.9063 23.9219 23.9219 23.9219 23.9375 23.9375 23.9531 23.9531 23.9688 23.9688 23.9844 23.7969 23.5781 23.5781 23.5938 23.5938 23.6094 23.6094 23.625 23.6406 23.6406 23.6563 23.6563 23.6719 24.1094 24.1094 24.125 24.1406 24.1563 24.1563 24.1719 24.1875 24.2031 24.2031 24.2188 24.2344 24.25 24.2656 24.2656 24.2344 23.9063 23.8906 23.8906 23.9063 23.9219 23.9375 23.9531 23.9688 23.9844 24 24.4375 24.4531 24.4688 24.4844 24.5 24.5156 24.5313 24.5625 24.5781 24.5938 24.6094 24.625 24.6406 24.6563 24.5156 24.2813 24.2813 24.2969 24.3125 24.3281 24.3438 24.375 24.3906 24.4063 24.4219 24.4531 24.4688 24.4844 24.6563 24.6719 24.7031 24.7188 24.7344 24.7656 24.7813 24.7969 24.8281 24.8438 24.8594 24.8906 24.9063 24.9375 24.9531 24.9844 25 25.0313 25.0469 25.0625 25.0938 25.1094 25.1406 25.1719 25.1875 25.2188 25.2344 25.2656 25.2813 25.3125 25.3438 25.3594 25.3906 25.4063 25.4375 25.4688 25.4844 25.5156 25.5469 25.5625 25.5938 25.625 25.6563 25.6719 25.7031 25.7344 25.7656 25.7813 25.8125 25.8438 25.875 25.9063 25.9219 25.9531 25.9844 26.0156 26.0469 26.0781 26 25.9688 26 26.0313 26.0625 26.0938 26.125 26.1563 26.1875 26.2188 26.25 26.2656 26.6875 26.7031 26.7344
65504 65504 65504 65504 65504 65504 65504 65504 65504 65504 65504 65504 65504 65504 65504 65504 65504 65504 65504 65504 65504 65504 65504 65504 65504 65504 65504 65504 65504 65504 65504 65504 65504 65504 65504 65504 65504 65504 65504 65504 65504 65504 65504 65504 65504 65504 65504 65504 65504 65504 65504 65504 65504 65504 65504 65504 65504 65504 65504 65504 65504 65504 65504 65504 65504 65504 65504 65504 65504 65504 65504 65504 65504 65504 65504 65504 65504 65504 65504 65504 65504 65504 65504 65504 65504 65504 65504 65504 65504 65504 65504 65504 65504 65504 65504 65504 65504 65504 65504 65504 65504 65504 65504 65504 65504 65504 65504 65504 65504 65504 65504 65504 65504 65504 65504 25.1406 25.1094 25.0938 25.0625 25.0469 25.0156 25 24.9688 24.9531 24.9219 24.9063 24.875 24.8594 24.9531 25.125 25.2344 25.2188 25.1875 25.1719 25.1406 25.125 25.1094 25.0781 25.0625 25.0469 25.0156 25 24.9844 24.9531 24.9375 24.4844 24.4531 24.4375 24.4219 24.4063 24.3906 24.3594 24.3438 24.3281 24.3125 24.5 24.7031 24.6875 24.6719 24.6563 24.6406 24.625 24.6094 24.5938 24.5625 24.5469 24.5313 24.5156 24.5 24.4844 24.4688 24.4531 24.0156 24 23.9844 23.9688 23.9531 23.9375 23.9219 23.9063 23.8906 23.8906 23.875 23.9844 23.9844 23.9844 23.9688 23.9531 23.9375 23.9219 23.9219 23.9063 23.8906 23.875 23.875 23.8594 23.8438 23.8438 23.8281 23.8125 23.7969 23.7969 23.7813 23.7813 23.7656 23.75 23.75 23.7344 23.7344 23.7188 23.7188 23.7031 23.6875 23.6875 23.6719 23.6719 23.6719 23.6563 23.6563 23.6406 23.6406 23.625 23.625 23.625 23.6094 23.6094 23.5938 23.5938 23.5938 23.5781 23.5781 23.5781 23.5781 23.5625 23.5625 23.5625 23.5625 23.5469 23.5469 23.5469 23.5469 23.5469 23.5313 23.3906 23.3906 23.3906 23.3906 23.3906 23.375 23.375 23.375 23.375 23.375 23.375 23.375 23.375 23.7969 23.7969 23.7969 23.7969 23.7969 23.7969 23.7969 23.7969 23.8125 23.8125 23.8125 23.8125 23.8125 23.8125 23.8125 23.8125 23.4063 23.4063 23.4219 23.4219 23.4219 23.4219 23.4375 23.4375 23.4375 23.8594 23.875 23.875 23.875 23.8906 23.8906 23.9063 23.9063 23.9063 23.9219 23.9219 23.9375 23.9375 23.9531 23.9531 23.7656 23.5469 23.5625 23.5625 23.5781 23.5781 23.5938 23.6094 23.6094 23.625 23.625 23.6406 23.6563 24.0781 24.0938 24.1094 24.1094 24.125 24.1406 24.1563 24.1563 24.1719 24.1875 24.2031 24.2031 24.2188 24.2344 24.25 24.2188 23.875 23.8594 23.875 23.8906 23.9063 23.9219 23.9375 23.9531 23.9531 23.9688 24.4219 24.4375 24.4531 24.4688 24.4844 24.5 24.5156 24.5313 24.5469 24.5625 24.5781 24.5938 24.625 24.6406 24.5 24.25 24.25 24.2656 24.2969 24.3125 24.3281 24.3438 24.3594 24.3906 24.4063 24.4219 24.4375 24.4688 24.6406 24.6563 24.6719 24.7031 24.7188 24.7344 24.7656 24.7813 24.7969 24.8281 24.8438 24.8594 24.8906 24.9063 24.9375 24.9531 24.9844 25 25.0313 25.0469 25.0781 25.0938 25.125 25.1406 25.1719 25.1875 25.2188 25.2344 25.2656 25.2969 25.3125 25.3438 25.3594 25.3906 25.4219 25.4375 25.4688 25.5 25.5156 25.5469 25.5781 25.6094 25.625 25.6563 25.6875 25.7188 25.7344 25.7656 25.7969 25.8281 25.8438 25.875 25.9063 25.9375 25.9688 26 26.0156 26.0469 25.9844 25.9531 25.9844 26.0156 26.0469 26.0625 26.0938 26.125 26.1563 26.1875 26.2188 26.25 26.75 26.7813 26.8125
65504 65504 65504 65504 65504 65504 65504 65504 65504 65504 65504 65504 65504 65504 65504 65504 65504 65504 65504 65504 65504 65504 65504 65504 65504 65504 65504 65504 65504 65504 65504 65504 65504 65504 65504 65504 65504 65504 65504 65504 65504 65504 65504 65504 65504 65504 65504 65504 65504 65504 65504 65504 65504 65504 65504 65504 65504 65504 65504 65504 65504 65504 65504 65504 65504 65504 65504 65504 65504 65504 65504 65504 65504 65504 65504 65504 65504 65504 65504 65504 65504 65504 65504 65504 65504 65504 65504 65504 65504 65504 65504 65504 65504 65504 65504 65504 65504 65504 65504 65504 65504 65504 65504 65504 65504 65504 65504 65504 65504 65504 65504 65504 65504 65504 65504 25.1094 25.0938 25.0625 25.0469 25.0156 25 24.9688 24.9531 24.9219 24.9063 24.875 24.8594 24.8281 24.9219 25.0938 25.2188 25.1875 25.1719 25.1406 25.125 25.1094 25.0781 25.0625 25.0313 25.0156 25 24.9688 24.9531 24.9375 24.9219 24.4531 24.4375 24.4219 24.4063 24.375 24.3594 24.3438 24.3281 24.3125 24.2813 24.4688 24.6875 24.6719 24.6563 24.6406 24.6094 24.5938 24.5781 24.5625 24.5469 24.5313 24.5156 24.5 24.4844 24.4688 24.4531 24.4375 23.9844 23.9688 23.9531 23.9375 23.9375 23.9219 23.9063 23.8906 23.875 23.8594 23.8438 23.9531 23.9688 23.9531 23.9375 23.9375 23.9219 23.9063 23.8906 23.875 23.875 23.8594 23.8438 23.8281 23.8281 23.8125 23.7969 23.7969 23.7813 23.7656 23.7656 23.75 23.75 23.7344 23.7188 23.7188 23.7031 23.7031 23.6875 23.6875 23.6719 23.6719 23.6563 23.6563 23.6406 23.6406 23.625 23.625 23.6094 23.6094 23.5938 23.5938 23.5938 23.5781 23.5781 23.5781 23.5625 23.5625 23.5625 23.5469 23.5469 23.5469 23.5469 23.5313 23.5313 23.5313 23.5313 23.5156 23.5156 23.5156 23.5156 23.375 23.3594 23.3594 23.3594 23.3594 23.3594 23.3594 23.3594 23.3594 23.3594 23.3594 23.3594 23.3594 23.7813 23.7813 23.7813 23.7813 23.7813 23.7813 23.7813 23.7813 23.7813 23.7813 23.7813 23.7813 23.7969 23.7969 23.7969 23.7813 23.3906 23.3906 23.3906 23.3906 23.4063 23.4063 23.4063 23.4063 23.4219 23.8438 23.8438 23.8594 23.8594 23.8594 23.875 23.875 23.875 23.8906 23.8906 23.9063 23.9063 23.9219 23.9219 23.9375 23.7344 23.5313 23.5313 23.5469 23.5469 23.5625 23.5625 23.5781 23.5938 23.5938 23.6094 23.6094 23.625 24.0625 24.0781 24.0781 24.0938 24.1094 24.1094 24.125 24.1406 24.1563 24.1563 24.1719 24.1875 24.2031 24.2188 24.2188 24.1875 23.8438 23.8438 23.8594 23.8594 23.875 23.8906 23.9063 23.9219 23.9375 23.9531 24.3906 24.4063 24.4219 24.4375 24.4531 24.4688 24.5 24.5156 24.5313 24.5469 24.5625 24.5781 24.5938 24.6094 24.4688 24.2188 24.2344 24.25 24.2656 24.2813 24.3125 24.3281 24.3438 24.3594 24.375 24.4063 24.4219 24.4375 24.6094 24.625 24.6563 24.6719 24.6875 24.7188 24.7344 24.7656 24.7813 24.7969 24.8281 24.8438 24.875 24.8906 24.9063 24.9375 24.9531 24.9844 25 25.0313 25.0469 25.0781 25.0938 25.125 25.1406 25.1719 25.1875 25.2188 25.25 25.2656 25.2969 25.3125 25.3438 25.375 25.3906 25.4219 25.4531 25.4688 25.5 25.5313 25.5469 25.5781 25.6094 25.6406 25.6563 25.6875 25.7188 25.75 25.7813 25.7969 25.8281 25.8594 25.8906 25.9219 25.9375 25.9688 26 26.0313 25.9531 25.9375 25.9531 25.9844 26.0156 26.0469 26.0781 26.1094 26.1406 26.1719 26.2031 26.2344 26.7344 26.7656 26.7969
65504 65504 65504 65504 65504 65504 65504 65504 65504 65504 65504 65504 65504 65504 65504 65504 65504 65504 65504 65504 65504 65504 65504 65504 65504 65504 65504 65504 65504 65504 65504 65504 65504 65504 65504 65504 65504 65504 65504 65504 65504 65504 65504 65504 65504 65504 65504 65504 65504 65504 65504 65504 65504 65504 65504 65504 65504 65504 65504 65504 65504 65504 65504 65504 65504 65504 65504 65504 65504 65504 65504 65504 65504 65504 65504 65504 65504 65504 65504 65504 65504 65504 65504 65504 65504 65504 65504 65504 65504 65504 65504 65504 65504 65504 65504 65504 65504 65504 65504 65504 65504 65504 65504 65504 65504 65504 65504 65504 65504 65504 65504 65504 65504 65504 65504 25.0938 25.0625 25.0469 25.0156 25 24.9688 24.9531 24.9219 24.9063 24.875 24.8594 24.8438 24.8125 24.8906 25.0625 25.1875 25.1719 25.1406 25.125 25.1094 25.0781 25.0625 25.0313 25.0156 25 24.9688 24.9531 24.9375 24.9219 24.8906 24.4375 24.4219 24.3906 24.375 24.3594 24.3438 24.3281 24.2969 24.2813 24.2656 24.4531 24.6719 24.6406 24.625 24.6094 24.5938 24.5781 24.5625 24.5469 24.5313 24.5156 24.5 24.4688 24.4531 24.4375 24.4219 24.4063 23.9688 23.9531 23.9375 23.9219 23.9063 23.8906 23.875 23.8594 23.8594 23.8438 23.8281 23.9375 23.9531 23.9375 23.9219 23.9063 23.8906 23.8906 23.875 23.8594 23.8438 23.8281 23.8281 23.8125 23.7969 23.7969 23.7813 23.7656 23.7656 23.75 23.7344 23.7344 23.7188 23.7031 23.7031 23.6875 23.6875 23.6719 23.6719 23.6563 23.6563 23.6406 23.6406 23.625 23.625 23.6094 23.6094 23.5938 23.5938 23.5781 23.5781 23.5781 23.5625 23.5625 23.5625 23.5469 23.5469 23.5469 23.5313 23.5313 23.5313 23.5156 23.5156 23.5156 23.5156 23.5 23.5 23.5 23.5 23.5 23.5 23.3438 23.3438 23.3438 23.3438 23.3438 23.3438 23.3281 23.3281 23.3281 23.3281 23.3281 23.3281 23.3281 23.75 23.75 23.75 23.75 23.75 23.75 23.75 23.75 23.7656 23.7656 23.7656 23.7656 23.7656 23.7656 23.7656 23.75 23.3594 23.3594 23.375 23.375 23.375 23.375 23.3906 23.3906 23.3906 23.8125 23.8281 23.8281 23.8281 23.8438 23.8438 23.8594 23.8594 23.8594 23.875 23.875 23.8906 23.8906 23.9063 23.9063 23.7188 23.5 23.5156 23.5156 23.5313 23.5313 23.5469 23.5625 23.5625 23.5781 23.5781 23.5938 23.6094 24.0313 24.0469 24.0625 24.0625 24.0781 24.0938 24.1094 24.1094 24.125 24.1406 24.1563 24.1719 24.1719 24.1875 24.2031 24.1563 23.8281 23.8125 23.8281 23.8438 23.8594 23.875 23.8906 23.9063 23.9219 23.9375 24.375 24.3906 24.4063 24.4219 24.4375 24.4531 24.4688 24.4844 24.5 24.5156 24.5313 24.5625 24.5781 24.5938 24.4375 24.2031 24.2031 24.2344 24.25 24.2656 24.2813 24.2969 24.3281 24.3438 24.3594 24.375 24.4063 24.4219 24.5938 24.6094 24.625 24.6563 24.6719 24.6875 24.7188 24.7344 24.7656 24.7813 24.7969 24.8281 24.8438 24.875 24.8906 24.9063 24.9375 24.9531 24.9844 25 25.0313 25.0469 25.0781 25.0938 25.125 25.1563 25.1719 25.2031 25.2188 25.25 25.2656 25.2969 25.3281 25.3438 25.375 25.4063 25.4219 25.4531 25.4844 25.5 25.5313 25.5625 25.5938 25.6094 25.6406 25.6719 25.7031 25.7188 25.75 25.7813 25.8125 25.8438 25.8594 25.8906 25.9219 25.9531 25.9844 26.0156 25.9219 25.9063 25.9375 25.9688 26 26.0313 26.0625 26.0938 26.125 26.1563 26.1875 26.2188 26.7188 26.75 26.7813
65504 65504 65504 65504 65504 65504 65504 65504 65504 65504 65504 65504 65504 65504 65504 65504 65504 65504 65504 65504 65504 65504 65504 65504 65504 65504 65504 65504 65504 65504 65504 65504 65504 65504 65504 65504 65504 65504 65504 65504 65504 65504 65504 65504 65504 65504 65504 65504 65504 65504 65504 65504 65504 65504 65504 65504 65504 65504 65504 65504 65504 65504 65504 65504 65504 65504 65504 65504 65504 65504 65504 65504 65504 65504 65504 65504 65504 65504 65504 65504 65504 65504 65504 65504 65504 65504 65504 65504 65504 65504 65504 65504 65504 65504 65504 65504 65504 65504 65504 65504 65504 65504 65504 65504 65504 65504 65504 65504 65504 65504 65504 65504 65504 65504 65504 25.0781 25.0469 25.0313 25 24.9844 24.9531 24.9375 24.9063 24.8906 24.8594 24.8438 24.8125 24.7969 24.875 25.0469 25.1719 25.1406 25.125 25.1094 25.0781 25.0625 25.0313 25.0156 25 24.9688 24.9531 24.9375 24.9063 24.8906 24.875 24.4219 24.3906 24.375 24.3594 24.3438 24.3125 24.2969 24.2813 24.2656 24.25 24.4219 24.6406 24.625 24.6094 24.5938 24.5781 24.5625 24.5313 24.5156 24.5 24.4844 24.4688 24.4531 24.4375 24.4219 24.4063 24.3906 23.9531 23.9375 23.9219 23.9063 23.8906 23.875 23.8594 23.8438 23.8281 23.8125 23.7969 23.9063 23.9219 23.9063 23.8906 23.8906 23.875 23.8594 23.8438 23.8438 23.8281 23.8125 23.7969 23.7969 23.7813 23.7656 23.7656 23.75 23.7344 23.7344 23.7188 23.7031 23.6875 23.6719 23.6719 23.6563 23.6563 23.6406 23.625 23.625 23.625 23.625 23.6094 23.6094 23.5938 23.5938 23.5781 23.5781 23.5625 23.5625 23.5625 23.5469 23.5469 23.5313 23.5313 23.5313 23.5156 23.5156 23.5156 23.5 23.5 23.5 23.5 23.4844 23.4844 23.4844 23.4844 23.4844 23.4688 23.4688 23.4688 23.3281 23.3281 23.3125 23.3125 23.3125 23.3125 23.3125 23.3125 23.3125 23.3125 23.3125 23.3125 23.3125 23.7344 23.7344 23.7344 23.7344 23.7344 23.7344 23.7344 23.7344 23.7344 23.7344 23.7344 23.7344 23.75 23.75 23.75 23.7344 23.3438 23.3438 23.3438 23.3438 23.3594 23.3594 23.3594 23.3594 23.375 23.7969 23.7969 23.8125 23.8125 23.8125 23.8281 23.8281 23.8281 23.8438 23.8438 23.8594 23.8594 23.875 23.875 23.8906 23.6875 23.4844 23.4844 23.5 23.5 23.5156 23.5313 23.5313 23.5469 23.5469 23.5625 23.5781 23.5781 24.0156 24.0313 24.0313 24.0469 24.0625 24.0625 24.0781 24.0938 24.1094 24.1094 24.125 24.1406 24.1563 24.1719 24.1875 24.1406 23.7969 23.7969 23.8125 23.8281 23.8438 23.8438 23.8594 23.875 23.8906 23.9063 24.3594 24.375 24.3906 24.4063 24.4219 24.4375 24.4531 24.4688 24.4844 24.5 24.5156 24.5313 24.5469 24.5625 24.4063 24.1719 24.1875 24.2031 24.2188 24.25 24.2656 24.2813 24.2969 24.3125 24.3438 24.3594 24.375 24.3906 24.5625 24.5938 24.6094 24.625 24.6563 24.6719 24.6875 24.7188 24.7344 24.7656 24.7813 24.7969 24.8281 24.8438 24.875 24.8906 24.9219 24.9375 24.9531 24.9844 25 25.0313 25.0625 25.0781 25.1094 25.125 25.1563 25.1719 25.2031 25.2344 25.25 25.2813 25.2969 25.3281 25.3594 25.375 25.4063 25.4375 25.4531 25.4844 25.5156 25.5469 25.5625 25.5938 25.625 25.6563 25.6719 25.7031 25.7344 25.7656 25.7969 25.8125 25.8438 25.875 25.9063 25.9375 25.9688 25.9844 25.9063 25.8906 25.9219 25.9531 25.9844 26.0156 26.0469 26.0781 26.0938 26.125 26.1563 26.1875 26.6875 26.7188 26.75
65504 65504 65504 65504 65504 65504 65504 65504 65504 65504 65504 65504 65504 65504 65504 65504 65504 65504 65504 65504 65504 65504 65504 65504 65504 65504 65504 65504 65504 65504 65504 65504 65504 65504 65504 65504 65504 65504 65504 65504 65504 65504 65504 65504 65504 65504 65504 65504 65504 65504 65504 65504 65504 65504 65504 65504 65504 65504 65504 65504 65504 65504 65504 65504 65504 65504 65504 65504 65504 65504 65504 65504 65504 65504 65504 65504 65504 65504 65504 65504 65504 65504 65504 65504 65504 65504 65504 65504 65504 65504 65504 65504 65504 65504 65504 65504 65504 65504 65504 65504 65504 65504 65504 65504 65504 65504 65504 65504 65504 65504 65504 65504 65504 65504 65504 25.0469 25.0313 25 24.9844 24.9531 24.9375 24.9063 24.8906 24.8594 24.8438 24.8125 24.7969 24.7813 24.8438 25.0156 25.1563 25.125 25.1094 25.0781 25.0625 25.0469 25.0156 25 24.9688 24.9531 24.9375 24.9063 24.8906 24.875 24.8594 24.3906 24.375 24.3594 24.3438 24.3125 24.2969 24.2813 24.2656 24.25 24.2188 24.3906 24.625 24.6094 24.5781 24.5625 24.5469 24.5313 24.5156 24.5 24.4844 24.4688 24.4531 24.4375 24.4219 24.4063 24.3906 24.375 23.9219 23.9063 23.8906 23.875 23.8594 23.8438 23.8438 23.8281 23.8125 23.7969 23.7813 23.875 23.9063 23.8906 23.875 23.8594 23.8438 23.8438 23.8281 23.8125 23.7969 23.7969 23.7813 23.7656 23.75 23.75 23.7344 23.7188 23.7188 23.7031 23.6875 23.6875 23.6563 23.6563 23.6406 23.6406 23.625 23.625 23.6094 23.5938 23.6094 23.5938 23.5938 23.5781 23.5781 23.5625 23.5625 23.5469 23.5469 23.5469 23.5313 23.5313 23.5156 23.5156 23.5156 23.5 23.5 23.5 23.4844 23.4844 23.4844 23.4688 23.4688 23.4688 23.4688 23.4688 23.4531 23.4531 23.4531 23.4531 23.4531 23.2969 23.2969 23.2969 23.2969 23.2969 23.2969 23.2969 23.2969 23.2813 23.2813 23.2813 23.2813 23.2813 23.7031 23.7031 23.7031 23.7031 23.7031 23.7031 23.7031 23.7031 23.7188 23.7188 23.7188 23.7188 23.7188 23.7188 23.7344 23.7031 23.3125 23.3125 23.3281 23.3281 23.3281 23.3281 23.3438 23.3438 23.3438 23.7656 23.7813 23.7813 23.7813 23.7969 23.7969 23.8125 23.8125 23.8125 23.8281 23.8281 23.8438 23.8438 23.8594 23.8594 23.6563 23.4531 23.4688 23.4688 23.4844 23.5 23.5 23.5156 23.5156 23.5313 23.5469 23.5469 23.5625 23.9844 24 24.0156 24.0313 24.0313 24.0469 24.0625 24.0625 24.0781 24.0938 24.1094 24.125 24.125 24.1406 24.1563 24.1094 23.7656 23.7656 23.7813 23.7969 23.8125 23.8281 23.8438 23.8594 23.875 23.8906 24.3281 24.3438 24.3594 24.375 24.3906 24.4063 24.4219 24.4375 24.4531 24.4688 24.5 24.5156 24.5313 24.5469 24.3906 24.1563 24.1719 24.1875 24.2031 24.2188 24.2344 24.2656 24.2813 24.2969 24.3125 24.3438 24.3594 24.375 24.5469 24.5625 24.5938 24.6094 24.625 24.6563 24.6719 24.6875 24.7188 24.7344 24.7656 24.7813 24.7969 24.8281 24.8438 24.875 24.8906 24.9219 24.9375 24.9688 24.9844 25.0156 25.0313 25.0625 25.0781 25.1094 25.125 25.1563 25.1875 25.2031 25.2344 25.25 25.2813 25.3125 25.3281 25.3594 25.3906 25.4063 25.4375 25.4688 25.5 25.5156 25.5469 25.5781 25.5938 25.625 25.6563 25.6875 25.7188 25.7344 25.7656 25.7969 25.8281 25.8594 25.8906 25.9063 25.9375 25.9688 25.875 25.875 25.9063 25.9375 25.9531 25.9844 26.0156 26.0469 26.0781 26.1094 26.1406 26.1719 26.6719 26.7031 26.7344
65504 65504 65504 65504 65504 65504 65504 65504 65504 65504 65504 65504 65504 65504 65504 65504 65504 65504 65504 65504 65504 65504 65504 65504 65504 65504 65504 65504 65504 65504 65504 65504 65504 65504 65504 65504 65504 65504 65504 65504 65504 65504 65504 65504 65504 65504 65504 65504 65504 65504 65504 65504 65504 65504 65504 65504 65504 65504 65504 65504 65504 65504 65504 65504 65504 65504 65504 65504 65504 65504 65504 65504 65504 65504 65504 65504 65504 65504 65504 65504 65504 65504 65504 65504 65504 65504 65504 65504 65504 65504 65504 65504 65504 65504 65504 65504 65504 65504 65504 65504 65504 65504 65504 65504 65504 65504 65504 65504 65504 65504 65504 65504 65504 65504 65504 25.0313 25.0156 24.9844 24.9688 24.9375 24.9219 24.8906 24.875 24.8438 24.8281 24.7969 24.7813 24.75 24.8281 25 25.125 25.1094 25.0781 25.0625 25.0469 25.0156 25 24.9688 24.9531 24.9375 24.9063 24.8906 24.875 24.8438 24.8281 24.375 24.3594 24.3281 24.3125 24.2969 24.2813 24.2656 24.2344 24.2188 24.2031 24.375 24.5938 24.5781 24.5625 24.5469 24.5313 24.5156 24.5 24.4844 24.4531 24.4375 24.4219 24.4063 24.3906 24.375 24.3594 24.3438 23.9063 23.8906 23.875 23.8594 23.8438 23.8281 23.8125 23.7969 23.7813 23.7813 23.7656 23.8594 23.875 23.875 23.8594 23.8438 23.8281 23.8125 23.8125 23.7969 23.7813 23.7656 23.7656 23.75 23.7344 23.7188 23.7188 23.7031 23.6875 23.6875 23.6719 23.6563 23.6406 23.625 23.625 23.6094 23.6094 23.5938 23.5938 23.5781 23.5781 23.5781 23.5625 23.5625 23.5469 23.5469 23.5313 23.5313 23.5313 23.5156 23.5156 23.5 23.5 23.5 23.4844 23.4844 23.4844 23.4688 23.4688 23.4688 23.4531 23.4531 23.4531 23.4531 23.4375 23.4375 23.4375 23.4375 23.4219 23.4219 23.4219 23.2813 23.2813 23.2813 23.2656 23.2656 23.2656 23.2656 23.2656 23.2656 23.2656 23.2656 23.2656 23.2656 23.6875 23.6875 23.6875 23.6875 23.6875 23.6875 23.6875 23.6875 23.6875 23.6875 23.6875 23.7031 23.7031 23.7031 23.7031 23.6719 23.2969 23.2969 23.2969 23.2969 23.3125 23.3125 23.3125 23.3281 23.3281 23.75 23.75 23.7656 23.7656 23.7656 23.7813 23.7813 23.7969 23.7969 23.7969 23.8125 23.8125 23.8281 23.8281 23.8438 23.625 23.4375 23.4375 23.4531 23.4688 23.4688 23.4844 23.4844 23.5 23.5 23.5156 23.5313 23.5313 23.9688 23.9844 23.9844 24 24.0156 24.0313 24.0313 24.0469 24.0625 24.0781 24.0781 24.0938 24.1094 24.125 24.1406 24.0781 23.75 23.75 23.7656 23.7813 23.7969 23.8125 23.8281 23.8281 23.8438 23.8594 24.3125 24.3281 24.3438 24.3594 24.375 24.3906 24.4063 24.4219 24.4375 24.4531 24.4688 24.4844 24.5 24.5313 24.3594 24.125 24.1406 24.1563 24.1875 24.2031 24.2188 24.2344 24.25 24.2813 24.2969 24.3125 24.3281 24.3594 24.5313 24.5469 24.5625 24.5938 24.6094 24.625 24.6563 24.6719 24.6875 24.7188 24.7344 24.7656 24.7813 24.7969 24.8281 24.8438 24.875 24.8906 24.9219 24.9375 24.9688 24.9844 25.0156 25.0313 25.0625 25.0938 25.1094 25.1406 25.1563 25.1875 25.2031 25.2344 25.2656 25.2813 25.3125 25.3438 25.3594 25.3906 25.4219 25.4375 25.4688 25.5 25.5313 25.5469 25.5781 25.6094 25.6406 25.6719 25.6875 25.7188 25.75 25.7813 25.8125 25.8281 25.8594 25.8906 25.9219 25.9531 25.8594 25.8438 25.875 25.9063 25.9375 25.9688 26 26.0313 26.0625 26.0938 26.125 26.1563 26.6563 26.6875 26.7188
65504 65504 65504 65504 65504 65504 65504 65504 65504 65504 65504 65504 65504 65504 65504 65504 65504 65504 65504 65504 65504 65504 65504 65504 65504 65504 65504 65504 65504 65504 65504 65504 65504 65504 65504 65504 65504 65504 65504 65504 65504 65504 65504 65504 65504 65504 65504 65504 65504 65504 65504 65504 65504 65504 65504 65504 65504 65504 65504 65504 65504 65504 65504 65504 65504 65504 65504 65504 65504 65504 65504 65504 65504 65504 65504 65504 65504 65504 65504 65504 65504 65504 65504 65504 65504 65504 65504 65504 65504 65504 65504 65504 65504 65504 65504 65504 65504 65504 65504 65504 65504 65504 65504 65504 65504 65504 65504 65504 65504 65504 65504 65504 65504 65504 65504 25.0156 24.9844 24.9688 24.9375 24.9219 24.8906 24.875 24.8438 24.8281 24.7969 24.7813 24.75 24.7344 24.7969 24.9688 25.1094 25.0781 25.0625 25.0469 25.0156 25 24.9688 24.9531 24.9375 24.9063 24.8906 24.875 24.8438 24.8281 24.8125 24.3594 24.3281 24.3125 24.2969 24.2813 24.25 24.2344 24.2188 24.2031 24.1875 24.3438 24.5625 24.5625 24.5469 24.5313 24.5 24.4844 24.4688 24.4531 24.4375 24.4219 24.4063 24.3906 24.375 24.3594 24.3438 24.3281 23.875 23.875 23.8594 23.8438 23.8281 23.8125 23.7969 23.7813 23.7656 23.75 23.7344 23.8281 23.8594 23.8438 23.8281 23.8281 23.8125 23.7969 23.7813 23.7656 23.7656 23.75 23.7344 23.7188 23.7188 23.7031 23.6875 23.6875 23.6719 23.6563 23.6563 23.6406 23.625 23.6094 23.5938 23.5938 23.5781 23.5781 23.5625 23.5625 23.5625 23.5469 23.5469 23.5313 23.5313 23.5156 23.5156 23.5156 23.5 23.5 23.4844 23.4844 23.4844 23.4688 23.4688 23.4531 23.4531 23.4531 23.4375 23.4375 23.4375 23.4375 23.4219 23.4219 23.4219 23.4219 23.4063 23.4063 23.4063 23.4063 23.4063 23.25 23.25 23.25 23.25 23.25 23.25 23.25 23.25 23.25 23.25 23.25 23.25 23.25 23.6563 23.6563 23.6563 23.6563 23.6563 23.6563 23.6563 23.6719 23.6719 23.6719 23.6719 23.6719 23.6719 23.6719 23.6875 23.6563 23.2656 23.2813 23.2813 23.2813 23.2813 23.2969 23.2969 23.2969 23.2969 23.7188 23.7344 23.7344 23.75 23.75 23.75 23.7656 23.7656 23.7813 23.7813 23.7813 23.7969 23.7969 23.8125 23.8125 23.6094 23.4219 23.4219 23.4375 23.4375 23.4531 23.4531 23.4688 23.4688 23.4844 23.5 23.5 23.5156 23.9531 23.9531 23.9688 23.9844 23.9844 24 24.0156 24.0313 24.0313 24.0469 24.0625 24.0781 24.0938 24.0938 24.1094 24.0469 23.7188 23.7344 23.75 23.75 23.7656 23.7813 23.7969 23.8125 23.8281 23.8438 24.2813 24.2969 24.3125 24.3281 24.3438 24.3594 24.375 24.3906 24.4219 24.4375 24.4531 24.4688 24.4844 24.5 24.3281 24.1094 24.125 24.1406 24.1563 24.1719 24.2031 24.2188 24.2344 24.25 24.2813 24.2969 24.3125 24.3281 24.5 24.5313 24.5469 24.5625 24.5938 24.6094 24.625 24.6563 24.6719 24.6875 24.7188 24.7344 24.7656 24.7813 24.8125 24.8281 24.8438 24.875 24.8906 24.9219 24.9375 24.9688 25 25.0156 25.0469 25.0625 25.0938 25.1094 25.1406 25.1719 25.1875 25.2188 25.2344 25.2656 25.2969 25.3125 25.3438 25.375 25.3906 25.4219 25.4531 25.4844 25.5 25.5313 25.5625 25.5938 25.6094 25.6406 25.6719 25.7031 25.7344 25.75 25.7813 25.8125 25.8438 25.875 25.9063 25.9375 25.8281 25.8281 25.8594 25.8906 25.9219 25.9531 25.9844 26.0156 26.0469 26.0781 26.1094 26.1406 26.6406 26.6719 26.7031
