24.8125 24.7656 24.7188 24.6875 24.6406 24.6094 24.5625 24.5156 24.4844 24.4375 24.4063 24.3594 24.3281 24.2969 24.4063 24.4219 24.375 24.3438 24.2969 24.2656 24.2188 24.1875 23.9375 23.9063 23.875 23.8281 23.7969 23.7656 23.7344 23.6875 23.6563 23.625 23.5938 23.6563 23.7188 23.6875 23.6563 23.625 23.5781 23.5469 23.5156 23.2813 23.25 23.2188 23.1875 23.1563 23.125 23.0938 23.0625 23.0313 23 22.9688 22.9375 22.9063 22.8906 23.0469 23.0156 22.9844 22.9531 22.9375 22.9063 22.875 22.8438 22.625 22.5938 22.5625 22.5469 22.5156 22.4844 22.4688 22.4375 22.4063 22.3906 22.3594 22.3281 22.4531 22.4688 22.4531 22.4219 22.4063 22.375 22.3594 22.3281 22.3125 22.0938 22.0781 22.0469 22.0313 22 21.9844 21.9688 21.9375 21.9219 21.8906 21.875 21.8594 21.8438 21.8125 21.7969 21.7813 21.7656 21.7344 21.7188 21.7031 21.6875 21.6719 21.6406 21.625 21.6094 21.5938 21.5781 21.5625 21.5469 21.5313 21.5156 21.5 21.4844 21.4688 21.4531 21.4375 21.4219 21.4063 21.3438 21.3438 21.3281 21.3125 21.2969 21.2813 21.2656 21.25 21.25 21.2344 21.2188 21.2031 21.2031 21.1875 21.1719 21.1563 21.1563 21.1406 21.1719 21.1563 21.1563 21.1406 21.125 21.125 21.1094 21.1094 21.0938 21.0781 21.0781 21.0625 21.0625 21.0469 21.0469 21.0313 21.0313 21.0313 21.0156 21.0156 21 21 21 20.9844 20.9844 20.9844 20.9688 20.9688 20.9688 20.9531 20.9531 20.9531 20.9531 20.9375 20.9375 20.9375 20.9375 20.9375 20.9219 20.9219 20.9219 20.9219 20.9219 21.0938 21.0938 21.0938 21.0938 21.0938 21.0938 21.0938 21.0938 21.0938 20.9219 20.9219 20.9219 20.9219 20.9219 20.9219 20.9219 20.9219 20.9219 20.9219 20.9219 20.9375 20.9375 20.9375 20.9375 20.9375 20.9375 20.9531 20.9531 20.9531 21.1406 21.1406 21.1563 21.1563 21.1563 21.1563 21.1719 21.1719 21.1719 21.1875 21.0156 21.0156 21.0156 21.0313 21.0313 21.0469 21.0469 21.0625 21.0625 21.0625 21.0781 21.0781 21.0938 21.0938 21.1094 21.1094 21.125 21.1406 21.1406 21.1563 21.1563 65504 65504 65504 65504 65504 65504 65504 65504 65504 65504 65504 65504 65504 65504 65504 65504 65504 65504 65504 65504 65504 65504 65504 65504 65504 65504 65504 65504 65504 65504 65504 65504 65504 65504 65504 65504 65504 65504 65504 65504 65504 65504 65504 65504 65504 65504 65504 65504 65504 65504 65504 65504 65504 65504 65504 65504 65504 65504 65504 65504 65504 65504 65504 65504 65504 65504 65504 65504 65504 65504 65504 65504 65504 65504 65504 65504 65504 65504 65504 65504 65504 65504 65504 65504 65504 65504 65504 65504 65504 65504 65504 65504 65504 65504 65504 65504 65504 65504 65504 65504 65504 65504 65504 65504 65504 65504 65504 65504 65504 65504 65504 65504 65504 65504 65504 65504 65504 65504 65504 65504 65504 65504 65504 65504 65504 65504 65504 65504 65504 65504 65504 65504 65504 65504 65504 65504 65504 65504 65504 65504 65504 65504 65504 65504 65504 65504 65504 65504 65504 65504 65504 65504 65504 65504 65504 65504 65504 65504 65504 65504 65504 65504 65504 65504 65504 65504 65504 65504 65504 65504 65504 65504 65504 65504 65504 65504 65504 65504 65504 65504 65504 65504 65504 65504 65504 65504 65504 65504 65504 65504 65504 65504 65504 65504 65504 65504 65504
24.8125 24.7813 24.7344 24.6875 24.6563 24.6094 24.5781 24.5313 24.4844 24.4531 24.4063 24.375 24.3281 24.2969 24.4063 24.4219 24.3906 24.3438 24.3125 24.2656 24.2344 24.2031 23.9531 23.9219 23.875 23.8438 23.8125 23.7656 23.7344 23.7031 23.6719 23.625 23.5938 23.6563 23.7344 23.7031 23.6563 23.625 23.5938 23.5625 23.5313 23.2969 23.2656 23.2344 23.2031 23.1719 23.1406 23.1094 23.0781 23.0469 23.0156 22.9844 22.9531 22.9219 22.8906 23.0469 23.0313 23 22.9688 22.9375 22.9063 22.8906 22.8594 22.625 22.6094 22.5781 22.5469 22.5313 22.5 22.4688 22.4375 22.4219 22.3906 22.375 22.3438 22.4688 22.4844 22.4531 22.4375 22.4063 22.3906 22.3594 22.3438 22.3125 22.1094 22.0781 22.0625 22.0313 22.0156 21.9844 21.9688 21.9531 21.9219 21.9063 21.8906 21.8594 21.8438 21.8281 21.8125 21.7813 21.7656 21.75 21.7344 21.7031 21.6875 21.6719 21.6563 21.6406 21.625 21.6094 21.5781 21.5625 21.5469 21.5313 21.5156 21.5 21.4844 21.4688 21.4531 21.4375 21.4219 21.4063 21.3594 21.3438 21.3281 21.3125 21.2969 21.2969 21.2813 21.2656 21.25 21.2344 21.2344 21.2188 21.2031 21.1875 21.1875 21.1719 21.1563 21.1563 21.1719 21.1719 21.1563 21.1406 21.1406 21.125 21.125 21.1094 21.0938 21.0938 21.0781 21.0781 21.0625 21.0625 21.0469 21.0469 21.0313 21.0313 21.0313 21.0156 21.0156 21 21 21 20.9844 20.9844 20.9844 20.9688 20.9688 20.9688 20.9688 20.9531 20.9531 20.9531 20.9531 20.9375 20.9375 20.9375 20.9375 20.9375 20.9375 20.9375 20.9219 21.1094 21.1094 21.1094 21.1094 21.1094 21.1094 21.1094 21.1094 21.1094 20.9219 20.9219 20.9219 20.9219 20.9219 20.9219 20.9219 20.9219 20.9375 20.9375 20.9375 20.9375 20.9375 20.9375 20.9531 20.9531 20.9531 20.9531 20.9531 20.9688 21.1406 21.1563 21.1563 21.1563 21.1719 21.1719 21.1719 21.1875 21.1875 21.1875 21.0156 21.0156 21.0313 21.0313 21.0469 21.0469 21.0625 21.0625 21.0625 21.0781 21.0781 21.0938 21.0938 21.1094 21.1094 21.125 21.125 21.1406 21.1563 21.1563 21.1719 65504 65504 65504 65504 65504 65504 65504 65504 65504 65504 65504 65504 65504 65504 65504 65504 65504 65504 65504 65504 65504 65504 65504 65504 65504 65504 65504 65504 65504 65504 65504 65504 65504 65504 65504 65504 65504 65504 65504 65504 65504 65504 65504 65504 65504 65504 65504 65504 65504 65504 65504 65504 65504 65504 65504 65504 65504 65504 65504 65504 65504 65504 65504 65504 65504 65504 65504 65504 65504 65504 65504 65504 65504 65504 65504 65504 65504 65504 65504 65504 65504 65504 65504 65504 65504 65504 65504 65504 65504 65504 65504 65504 65504 65504 65504 65504 65504 65504 65504 65504 65504 65504 65504 65504 65504 65504 65504 65504 65504 65504 65504 65504 65504 65504 65504 65504 65504 65504 65504 65504 65504 65504 65504 65504 65504 65504 65504 65504 65504 65504 65504 65504 65504 65504 65504 65504 65504 65504 65504 65504 65504 65504 65504 65504 65504 65504 65504 65504 65504 65504 65504 65504 65504 65504 65504 65504 65504 65504 65504 65504 65504 65504 65504 65504 65504 65504 65504 65504 65504 65504 65504 65504 65504 65504 65504 65504 65504 65504 65504 65504 65504 65504 65504 65504 65504 65504 65504 65504 65504 65504 65504 65504 65504 65504 65504 65504 65504
24.8281 24.7813 24.75 24.7031 24.6563 24.625 24.5781 24.5469 24.5 24.4531 24.4219 24.375 24.3438 24.2969 24.4219 24.4375 24.3906 24.3594 24.3125 24.2813 24.25 24.2031 23.9688 23.9219 23.8906 23.8594 23.8125 23.7813 23.75 23.7031 23.6719 23.6406 23.6094 23.6563 23.7344 23.7031 23.6719 23.6406 23.6094 23.5625 23.5313 23.2969 23.2656 23.2344 23.2031 23.1719 23.1406 23.1094 23.0781 23.0469 23.0156 22.9844 22.9531 22.9219 22.9063 23.0469 23.0313 23 22.9844 22.9531 22.9219 22.8906 22.8594 22.6406 22.6094 22.5938 22.5625 22.5313 22.5 22.4844 22.4531 22.4219 22.4063 22.375 22.3438 22.4688 22.5 22.4688 22.4375 22.4219 22.3906 22.375 22.3438 22.3281 22.1094 22.0938 22.0625 22.0469 22.0156 22 21.9844 21.9531 21.9375 21.9219 21.8906 21.875 21.8594 21.8281 21.8125 21.7969 21.7813 21.75 21.7344 21.7188 21.7031 21.6875 21.6563 21.6406 21.625 21.6094 21.5938 21.5781 21.5625 21.5469 21.5313 21.5156 21.5 21.4844 21.4688 21.4531 21.4375 21.4219 21.375 21.3594 21.3438 21.3281 21.3125 21.2969 21.2813 21.2656 21.2656 21.25 21.2344 21.2188 21.2188 21.2031 21.1875 21.1719 21.1719 21.1563 21.1875 21.1719 21.1719 21.1563 21.1406 21.1406 21.125 21.125 21.1094 21.0938 21.0938 21.0781 21.0781 21.0625 21.0625 21.0469 21.0469 21.0469 21.0313 21.0313 21.0156 21.0156 21.0156 21 21 21 20.9844 20.9844 20.9844 20.9688 20.9688 20.9688 20.9688 20.9531 20.9531 20.9531 20.9531 20.9531 20.9375 20.9375 20.9375 20.9375 20.9531 21.1094 21.1094 21.1094 21.1094 21.1094 21.1094 21.1094 21.1094 21.1094 20.9375 20.9375 20.9375 20.9375 20.9375 20.9375 20.9375 20.9375 20.9375 20.9375 20.9375 20.9531 20.9531 20.9531 20.9531 20.9531 20.9531 20.9688 20.9688 20.9688 21.1563 21.1563 21.1563 21.1719 21.1719 21.1719 21.1875 21.1875 21.1875 21.2031 21.0313 21.0313 21.0313 21.0469 21.0469 21.0625 21.0625 21.0625 21.0781 21.0781 21.0938 21.0938 21.1094 21.1094 21.125 21.125 21.1406 21.1563 21.1563 21.1719 21.1719 65504 65504 65504 65504 65504 65504 65504 65504 65504 65504 65504 65504 65504 65504 65504 65504 65504 65504 65504 65504 65504 65504 65504 65504 65504 65504 65504 65504 65504 65504 65504 65504 65504 65504 65504 65504 65504 65504 65504 65504 65504 65504 65504 65504 65504 65504 65504 65504 65504 65504 65504 65504 65504 65504 65504 65504 65504 65504 65504 65504 65504 65504 65504 65504 65504 65504 65504 65504 65504 65504 65504 65504 65504 65504 65504 65504 65504 65504 65504 65504 65504 65504 65504 65504 65504 65504 65504 65504 65504 65504 65504 65504 65504 65504 65504 65504 65504 65504 65504 65504 65504 65504 65504 65504 65504 65504 65504 65504 65504 65504 65504 65504 65504 65504 65504 65504 65504 65504 65504 65504 65504 65504 65504 65504 65504 65504 65504 65504 65504 65504 65504 65504 65504 65504 65504 65504 65504 65504 65504 65504 65504 65504 65504 65504 65504 65504 65504 65504 65504 65504 65504 65504 65504 65504 65504 65504 65504 65504 65504 65504 65504 65504 65504 65504 65504 65504 65504 65504 65504 65504 65504 65504 65504 65504 65504 65504 65504 65504 65504 65504 65504 65504 65504 65504 65504 65504 65504 65504 65504 65504 65504 65504 65504 65504 65504 65504 65504
24.8281 24.7969 24.75 24.7188 24.6719 24.625 24.5938 24.5469 24.5156 24.4688 24.4375 24.3906 24.3438 24.3125 24.4219 24.4375 24.4063 24.3594 24.3281 24.2969 24.25 24.2188 23.9688 23.9375 23.9063 23.8594 23.8281 23.7969 23.75 23.7188 23.6875 23.6563 23.6094 23.6719 23.75 23.7188 23.6875 23.6406 23.6094 23.5781 23.5469 23.3125 23.2813 23.25 23.2188 23.1875 23.1563 23.125 23.0938 23.0625 23.0313 23 22.9688 22.9375 22.9063 23.0625 23.0469 23.0156 22.9844 22.9531 22.9219 22.9063 22.875 22.6563 22.625 22.5938 22.5625 22.5469 22.5156 22.4844 22.4688 22.4375 22.4063 22.3906 22.3594 22.4688 22.5 22.4844 22.4531 22.4219 22.4063 22.375 22.3594 22.3281 22.125 22.0938 22.0781 22.0469 22.0313 22.0156 21.9844 21.9688 21.9375 21.9219 21.9063 21.875 21.8594 21.8438 21.8281 21.7969 21.7813 21.7656 21.75 21.7344 21.7031 21.6875 21.6719 21.6563 21.6406 21.625 21.6094 21.5781 21.5625 21.5469 21.5313 21.5156 21.5 21.4844 21.4688 21.4531 21.4375 21.4219 21.375 21.3594 21.3438 21.3281 21.3281 21.3125 21.2969 21.2813 21.2656 21.25 21.25 21.2344 21.2188 21.2031 21.2031 21.1875 21.1719 21.1719 21.1875 21.1875 21.1719 21.1563 21.1563 21.1406 21.1406 21.125 21.125 21.1094 21.0938 21.0938 21.0781 21.0781 21.0625 21.0625 21.0625 21.0469 21.0469 21.0313 21.0313 21.0156 21.0156 21.0156 21 21 21 20.9844 20.9844 20.9844 20.9844 20.9688 20.9688 20.9688 20.9688 20.9531 20.9531 20.9531 20.9531 20.9531 20.9531 20.9531 20.9844 21.125 21.125 21.125 21.125 21.125 21.125 21.125 21.125 21.125 20.9375 20.9375 20.9375 20.9375 20.9375 20.9375 20.9375 20.9375 20.9531 20.9531 20.9531 20.9531 20.9531 20.9531 20.9688 20.9688 20.9688 20.9688 20.9688 20.9844 21.1563 21.1719 21.1719 21.1719 21.1875 21.1875 21.1875 21.2031 21.2031 21.2031 21.0313 21.0313 21.0469 21.0469 21.0625 21.0625 21.0781 21.0781 21.0781 21.0938 21.0938 21.1094 21.1094 21.125 21.125 21.1406 21.1406 21.1563 21.1719 21.1719 21.1875 65504 65504 65504 65504 65504 65504 65504 65504 65504 65504 65504 65504 65504 65504 65504 65504 65504 65504 65504 65504 65504 65504 65504 65504 65504 65504 65504 65504 65504 65504 65504 65504 65504 65504 65504 65504 65504 65504 65504 65504 65504 65504 65504 65504 65504 65504 65504 65504 65504 65504 65504 65504 65504 65504 65504 65504 65504 65504 65504 65504 65504 65504 65504 65504 65504 65504 65504 65504 65504 65504 65504 65504 65504 65504 65504 65504 65504 65504 65504 65504 65504 65504 65504 65504 65504 65504 65504 65504 65504 65504 65504 65504 65504 65504 65504 65504 65504 65504 65504 65504 65504 65504 65504 65504 65504 65504 65504 65504 65504 65504 65504 65504 65504 65504 65504 65504 65504 65504 65504 65504 65504 65504 65504 65504 65504 65504 65504 65504 65504 65504 65504 65504 65504 65504 65504 65504 65504 65504 65504 65504 65504 65504 65504 65504 65504 65504 65504 65504 65504 65504 65504 65504 65504 65504 65504 65504 65504 65504 65504 65504 65504 65504 65504 65504 65504 65504 65504 65504 65504 65504 65504 65504 65504 65504 65504 65504 65504 65504 65504 65504 65504 65504 65504 65504 65504 65504 65504 65504 65504 65504 65504 65504 65504 65504 65504 65504 65504
24.8438 24.7969 24.7656 24.7188 24.6875 24.6406 24.5938 24.5625 24.5156 24.4844 24.4375 24.4063 24.3594 24.3281 24.4219 24.4531 24.4219 24.375 24.3438 24.2969 24.2656 24.2188 23.9844 23.9375 23.9063 23.875 23.8281 23.7969 23.7656 23.7344 23.6875 23.6563 23.625 23.6719 23.75 23.7188 23.6875 23.6563 23.625 23.5938 23.5625 23.3281 23.2969 23.25 23.2188 23.1875 23.1563 23.125 23.0938 23.0625 23.0313 23 22.9844 22.9531 22.9219 23.0625 23.0469 23.0313 23 22.9688 22.9375 22.9063 22.875 22.6563 22.625 22.6094 22.5781 22.5469 22.5313 22.5 22.4688 22.4531 22.4219 22.3906 22.375 22.4844 22.5156 22.4844 22.4688 22.4375 22.4063 22.3906 22.3594 22.3438 22.125 22.1094 22.0781 22.0625 22.0469 22.0156 22 21.9688 21.9531 21.9375 21.9063 21.8906 21.875 21.8438 21.8281 21.8125 21.7969 21.7656 21.75 21.7344 21.7188 21.7031 21.6875 21.6563 21.6406 21.625 21.6094 21.5938 21.5781 21.5625 21.5469 21.5313 21.5156 21.5 21.4844 21.4688 21.4531 21.4375 21.3906 21.375 21.3594 21.3438 21.3281 21.3125 21.2969 21.2969 21.2813 21.2656 21.25 21.2344 21.2344 21.2188 21.2031 21.1875 21.1875 21.1719 21.2031 21.1875 21.1875 21.1719 21.1563 21.1563 21.1406 21.1406 21.125 21.1094 21.1094 21.0938 21.0938 21.0781 21.0781 21.0781 21.0625 21.0625 21.0469 21.0469 21.0313 21.0313 21.0313 21.0156 21.0156 21.0156 21 21 21 20.9844 20.9844 20.9844 20.9844 20.9688 20.9688 20.9688 20.9688 20.9688 20.9531 20.9531 20.9531 20.9531 21.0156 21.125 21.125 21.125 21.125 21.125 21.125 21.125 21.125 21.125 20.9531 20.9531 20.9531 20.9531 20.9531 20.9531 20.9531 20.9531 20.9531 20.9531 20.9531 20.9688 20.9688 20.9688 20.9688 20.9688 20.9688 20.9844 20.9844 20.9844 21.1719 21.1719 21.1875 21.1875 21.1875 21.1875 21.2031 21.2031 21.2031 21.2188 21.0469 21.0469 21.0469 21.0625 21.0625 21.0781 21.0781 21.0781 21.0938 21.0938 21.1094 21.1094 21.125 21.125 21.1406 21.1406 21.1563 21.1719 21.1719 21.1875 21.1875 65504 65504 65504 65504 65504 65504 65504 65504 65504 65504 65504 65504 65504 65504 65504 65504 65504 65504 65504 65504 65504 65504 65504 65504 65504 65504 65504 65504 65504 65504 65504 65504 65504 65504 65504 65504 65504 65504 65504 65504 65504 65504 65504 65504 65504 65504 65504 65504 65504 65504 65504 65504 65504 65504 65504 65504 65504 65504 65504 65504 65504 65504 65504 65504 65504 65504 65504 65504 65504 65504 65504 65504 65504 65504 65504 65504 65504 65504 65504 65504 65504 65504 65504 65504 65504 65504 65504 65504 65504 65504 65504 65504 65504 65504 65504 65504 65504 65504 65504 65504 65504 65504 65504 65504 65504 65504 65504 65504 65504 65504 65504 65504 65504 65504 65504 65504 65504 65504 65504 65504 65504 65504 65504 65504 65504 65504 65504 65504 65504 65504 65504 65504 65504 65504 65504 65504 65504 65504 65504 65504 65504 65504 65504 65504 65504 65504 65504 65504 65504 65504 65504 65504 65504 65504 65504 65504 65504 65504 65504 65504 65504 65504 65504 65504 65504 65504 65504 65504 65504 65504 65504 65504 65504 65504 65504 65504 65504 65504 65504 65504 65504 65504 65504 65504 65504 65504 65504 65504 65504 65504 65504 65504 65504 65504 65504 65504 65504
24.8594 24.8125 24.7656 24.7344 24.6875 24.6563 24.6094 24.5625 24.5313 24.4844 24.4531 24.4063 24.375 24.3281 24.4375 24.4688 24.4219 24.3906 24.3438 24.3125 24.2656 24.2344 23.9844 23.9531 23.9219 23.875 23.8438 23.8125 23.7813 23.7344 23.7031 23.6719 23.6406 23.6719 23.7656 23.7344 23.7031 23.6719 23.625 23.5938 23.5625 23.3281 23.2969 23.2656 23.2344 23.2031 23.1719 23.1406 23.1094 23.0781 23.0469 23.0156 22.9844 22.9531 22.9219 23.0625 23.0625 23.0313 23 22.9688 22.9531 22.9219 22.8906 22.6719 22.6406 22.6094 22.5938 22.5625 22.5313 22.5 22.4844 22.4531 22.4219 22.4063 22.375 22.4844 22.5156 22.5 22.4688 22.4531 22.4219 22.3906 22.375 22.3438 22.1406 22.1094 22.0938 22.0781 22.0469 22.0313 22 21.9844 21.9688 21.9375 21.9219 21.9063 21.875 21.8594 21.8438 21.8281 21.7969 21.7813 21.7656 21.75 21.7188 21.7031 21.6875 21.6719 21.6563 21.6406 21.625 21.6094 21.5938 21.5625 21.5469 21.5313 21.5156 21.5 21.4844 21.4688 21.4688 21.4531 21.4375 21.375 21.3594 21.3438 21.3438 21.3281 21.3125 21.2969 21.2813 21.2813 21.2656 21.25 21.2344 21.2188 21.2188 21.2031 21.1875 21.1875 21.2031 21.2031 21.1875 21.1875 21.1719 21.1563 21.1563 21.1406 21.1406 21.125 21.125 21.1094 21.0938 21.0938 21.0938 21.0781 21.0781 21.0625 21.0625 21.0469 21.0469 21.0469 21.0313 21.0313 21.0156 21.0156 21.0156 21.0156 21 21 21 20.9844 20.9844 20.9844 20.9844 20.9844 20.9688 20.9688 20.9688 20.9688 20.9688 20.9688 21.0469 21.1406 21.1406 21.1406 21.1406 21.1406 21.1406 21.1406 21.1406 21.1406 20.9531 20.9531 20.9531 20.9531 20.9531 20.9531 20.9531 20.9688 20.9688 20.9688 20.9688 20.9688 20.9688 20.9688 20.9844 20.9844 20.9844 20.9844 20.9844 21 21.1719 21.1875 21.1875 21.1875 21.2031 21.2031 21.2031 21.2188 21.2188 21.2188 21.0469 21.0469 21.0625 21.0625 21.0781 21.0781 21.0938 21.0938 21.0938 21.1094 21.1094 21.125 21.125 21.1406 21.1406 21.1563 21.1563 21.1719 21.1875 21.1875 21.2031 65504 65504 65504 65504 65504 65504 65504 65504 65504 65504 65504 65504 65504 65504 65504 65504 65504 65504 65504 65504 65504 65504 65504 65504 65504 65504 65504 65504 65504 65504 65504 65504 65504 65504 65504 65504 65504 65504 65504 65504 65504 65504 65504 65504 65504 65504 65504 65504 65504 65504 65504 65504 65504 65504 65504 65504 65504 65504 65504 65504 65504 65504 65504 65504 65504 65504 65504 65504 65504 65504 65504 65504 65504 65504 65504 65504 65504 65504 65504 65504 65504 65504 65504 65504 65504 65504 65504 65504 65504 65504 65504 65504 65504 65504 65504 65504 65504 65504 65504 65504 65504 65504 65504 65504 65504 65504 65504 65504 65504 65504 65504 65504 65504 65504 65504 65504 65504 65504 65504 65504 65504 65504 65504 65504 65504 65504 65504 65504 65504 65504 65504 65504 65504 65504 65504 65504 65504 65504 65504 65504 65504 65504 65504 65504 65504 65504 65504 65504 65504 65504 65504 65504 65504 65504 65504 65504 65504 65504 65504 65504 65504 65504 65504 65504 65504 65504 65504 65504 65504 65504 65504 65504 65504 65504 65504 65504 65504 65504 65504 65504 65504 65504 65504 65504 65504 65504 65504 65504 65504 65504 65504 65504 65504 65504 65504 65504 65504
24.8594 24.8281 24.7813 24.7344 24.7031 24.6563 24.625 24.5781 24.5313 24.5 24.4531 24.4219 24.375 24.3438 24.4375 24.4688 24.4375 24.3906 24.3594 24.3125 24.2813 24.25 24 23.9688 23.9219 23.8906 23.8594 23.8125 23.7813 23.75 23.7188 23.6719 23.6406 23.6875 23.7813 23.75 23.7031 23.6719 23.6406 23.6094 23.5781 23.3438 23.3125 23.2813 23.25 23.2188 23.1875 23.1563 23.125 23.0938 23.0625 23.0313 23 22.9688 22.9375 23.0781 23.0781 23.0469 23.0156 22.9844 22.9531 22.9219 22.9063 22.6719 22.6563 22.625 22.5938 22.5625 22.5469 22.5156 22.4844 22.4688 22.4375 22.4063 22.3906 22.5 22.5313 22.5 22.4844 22.4531 22.4375 22.4063 22.3906 22.3594 22.1406 22.125 22.1094 22.0781 22.0625 22.0313 22.0156 22 21.9688 21.9531 21.9375 21.9063 21.8906 21.875 21.8438 21.8281 21.8125 21.7969 21.7656 21.75 21.7344 21.7188 21.7031 21.6875 21.6563 21.6406 21.625 21.6094 21.5938 21.5781 21.5625 21.5469 21.5313 21.5156 21.5 21.4844 21.4688 21.4531 21.4375 21.3906 21.375 21.3594 21.3438 21.3281 21.3281 21.3125 21.2969 21.2813 21.2656 21.2656 21.25 21.2344 21.2188 21.2188 21.2031 21.2344 21.2188 21.2031 21.2031 21.1875 21.1719 21.1719 21.1563 21.1563 21.1406 21.1406 21.125 21.125 21.1094 21.1094 21.0938 21.0938 21.0781 21.0781 21.0625 21.0625 21.0469 21.0469 21.0469 21.0313 21.0313 21.0313 21.0156 21.0156 21.0156 21.0156 21 21 21 21 20.9844 20.9844 20.9844 20.9844 20.9844 20.9688 20.9688 20.9688 21.0781 21.1563 21.1406 21.1406 21.1406 21.1406 21.1406 21.1406 21.1406 21.1406 20.9688 20.9688 20.9688 20.9688 20.9688 20.9688 20.9688 20.9688 20.9688 20.9688 20.9688 20.9844 20.9844 20.9844 20.9844 20.9844 21 21 21 21 21.1875 21.1875 21.2031 21.2031 21.2031 21.2031 21.2188 21.2188 21.2188 21.2344 21.0625 21.0625 21.0625 21.0781 21.0781 21.0938 21.0938 21.1094 21.1094 21.1094 21.125 21.125 21.1406 21.1406 21.1563 21.1563 21.1719 21.1875 21.1875 21.2031 21.2031 65504 65504 65504 65504 65504 65504 65504 65504 65504 65504 65504 65504 65504 65504 65504 65504 65504 65504 65504 65504 65504 65504 65504 65504 65504 65504 65504 65504 65504 65504 65504 65504 65504 65504 65504 65504 65504 65504 65504 65504 65504 65504 65504 65504 65504 65504 65504 65504 65504 65504 65504 65504 65504 65504 65504 65504 65504 65504 65504 65504 65504 65504 65504 65504 65504 65504 65504 65504 65504 65504 65504 65504 65504 65504 65504 65504 65504 65504 65504 65504 65504 65504 65504 65504 65504 65504 65504 65504 65504 65504 65504 65504 65504 65504 65504 65504 65504 65504 65504 65504 65504 65504 65504 65504 65504 65504 65504 65504 65504 65504 65504 65504 65504 65504 65504 65504 65504 65504 65504 65504 65504 65504 65504 65504 65504 65504 65504 65504 65504 65504 65504 65504 65504 65504 65504 65504 65504 65504 65504 65504 65504 65504 65504 65504 65504 65504 65504 65504 65504 65504 65504 65504 65504 65504 65504 65504 65504 65504 65504 65504 65504 65504 65504 65504 65504 65504 65504 65504 65504 65504 65504 65504 65504 65504 65504 65504 65504 65504 65504 65504 65504 65504 65504 65504 65504 65504 65504 65504 65504 65504 65504 65504 65504 65504 65504 65504 65504
24.875 24.8281 24.7969 24.75 24.7031 24.6719 24.625 24.5938 24.5469 24.5156 24.4688 24.4375 24.3906 24.3438 24.4375 24.4844 24.4375 24.4063 24.375 24.3281 24.2969 24.25 24.0156 23.9688 23.9375 23.9063 23.8594 23.8281 23.7969 23.7656 23.7188 23.6875 23.6563 23.6875 23.7813 23.75 23.7188 23.6875 23.6563 23.625 23.5781 23.3438 23.3125 23.2813 23.25 23.2188 23.1875 23.1563 23.125 23.0938 23.0625 23.0313 23 22.9688 22.9531 23.0781 23.0781 23.0469 23.0313 23 22.9688 22.9375 22.9063 22.6875 22.6563 22.625 22.6094 22.5781 22.5469 22.5313 22.5 22.4688 22.4531 22.4219 22.3906 22.5 22.5469 22.5156 22.4844 22.4688 22.4375 22.4219 22.3906 22.375 22.1563 22.1406 22.1094 22.0938 22.0625 22.0469 22.0313 22 21.9844 21.9531 21.9375 21.9219 21.9063 21.875 21.8594 21.8438 21.8125 21.7969 21.7813 21.7656 21.75 21.7188 21.7031 21.6875 21.6719 21.6563 21.6406 21.625 21.6094 21.5938 21.5781 21.5625 21.5469 21.5313 21.5156 21.5 21.4844 21.4688 21.4531 21.4375 21.3906 21.375 21.3594 21.3438 21.3281 21.3125 21.2969 21.2969 21.2813 21.2656 21.25 21.25 21.2344 21.2188 21.2031 21.2344 21.2344 21.2188 21.2031 21.2031 21.1875 21.1719 21.1719 21.1563 21.1563 21.1406 21.1406 21.125 21.125 21.1094 21.1094 21.0938 21.0938 21.0781 21.0781 21.0625 21.0625 21.0625 21.0469 21.0469 21.0469 21.0313 21.0313 21.0313 21.0156 21.0156 21.0156 21.0156 21 21 21 21 20.9844 20.9844 20.9844 20.9844 20.9844 20.9844 21.1094 21.1563 21.1563 21.1563 21.1563 21.1563 21.1563 21.1563 21.1563 21.1563 20.9688 20.9688 20.9688 20.9688 20.9688 20.9688 20.9844 20.9844 20.9844 20.9844 20.9844 20.9844 20.9844 21 21 21 21 21 21.0156 21.0156 21.2031 21.2031 21.2031 21.2031 21.2188 21.2188 21.2188 21.2344 21.2344 21.2344 21.0625 21.0781 21.0781 21.0781 21.0938 21.0938 21.1094 21.1094 21.125 21.125 21.125 21.1406 21.1406 21.1563 21.1563 21.1719 21.1875 21.1875 21.2031 21.2031 21.2188 65504 65504 65504 65504 65504 65504 65504 65504 65504 65504 65504 65504 65504 65504 65504 65504 65504 65504 65504 65504 65504 65504 65504 65504 65504 65504 65504 65504 65504 65504 65504 65504 65504 65504 65504 65504 65504 65504 65504 65504 65504 65504 65504 65504 65504 65504 65504 65504 65504 65504 65504 65504 65504 65504 65504 65504 65504 65504 65504 65504 65504 65504 65504 65504 65504 65504 65504 65504 65504 65504 65504 65504 65504 65504 65504 65504 65504 65504 65504 65504 65504 65504 65504 65504 65504 65504 65504 65504 65504 65504 65504 65504 65504 65504 65504 65504 65504 65504 65504 65504 65504 65504 65504 65504 65504 65504 65504 65504 65504 65504 65504 65504 65504 65504 65504 65504 65504 65504 65504 65504 65504 65504 65504 65504 65504 65504 65504 65504 65504 65504 65504 65504 65504 65504 65504 65504 65504 65504 65504 65504 65504 65504 65504 65504 65504 65504 65504 65504 65504 65504 65504 65504 65504 65504 65504 65504 65504 65504 65504 65504 65504 65504 65504 65504 65504 65504 65504 65504 65504 65504 65504 65504 65504 65504 65504 65504 65504 65504 65504 65504 65504 65504 65504 65504 65504 65504 65504 65504 65504 65504 65504 65504 65504 65504 65504 65504 65504
24.8906 24.8438 24.7969 24.7656 24.7188 24.6875 24.6406 24.5938 24.5625 24.5156 24.4844 24.4375 24.4063 24.3594 24.4531 24.5 24.4531 24.4219 24.375 24.3438 24.2969 24.2656 24.0156 23.9844 23.9531 23.9063 23.875 23.8438 23.7969 23.7656 23.7344 23.7031 23.6563 23.7031 23.7969 23.7656 23.7344 23.6875 23.6563 23.625 23.5938 23.3594 23.3281 23.2969 23.2656 23.2344 23.2031 23.1719 23.1406 23.1094 23.0781 23.0469 23.0156 22.9844 22.9531 23.0938 23.0938 23.0625 23.0313 23 22.9844 22.9531 22.9219 22.7031 22.6719 22.6406 22.6094 22.5938 22.5625 22.5313 22.5156 22.4844 22.4531 22.4375 22.4063 22.5 22.5469 22.5313 22.5 22.4688 22.4531 22.4219 22.4063 22.375 22.1719 22.1406 22.125 22.0938 22.0781 22.0625 22.0313 22.0156 21.9844 21.9688 21.9531 21.9219 21.9063 21.8906 21.875 21.8438 21.8281 21.8125 21.7969 21.7656 21.75 21.7344 21.7188 21.7031 21.6875 21.6719 21.6406 21.625 21.6094 21.5938 21.5781 21.5625 21.5469 21.5313 21.5156 21.5 21.4844 21.4688 21.4531 21.4531 21.4375 21.375 21.3594 21.3594 21.3438 21.3281 21.3125 21.2969 21.2813 21.2813 21.2656 21.25 21.25 21.2344 21.2656 21.25 21.2344 21.2344 21.2188 21.2031 21.2031 21.1875 21.1719 21.1719 21.1563 21.1563 21.1406 21.1406 21.125 21.125 21.1094 21.1094 21.0938 21.0938 21.0781 21.0781 21.0781 21.0625 21.0625 21.0625 21.0469 21.0469 21.0469 21.0313 21.0313 21.0313 21.0156 21.0156 21.0156 21.0156 21 21 21 21 21 21 20.9844 20.9844 21.1406 21.1719 21.1719 21.1563 21.1563 21.1563 21.1563 21.1563 21.1563 21.1563 20.9844 20.9844 20.9844 20.9844 20.9844 20.9844 20.9844 20.9844 20.9844 20.9844 21 21 21 21 21 21 21.0156 21.0156 21.0156 21.0156 21.2031 21.2031 21.2188 21.2188 21.2188 21.2344 21.2344 21.2344 21.25 21.25 21.0781 21.0781 21.0938 21.0938 21.0938 21.1094 21.1094 21.125 21.125 21.1406 21.1406 21.1563 21.1563 21.1719 21.1719 21.1875 21.1875 21.2031 21.2031 21.2188 21.2188 65504 65504 65504 65504 65504 65504 65504 65504 65504 65504 65504 65504 65504 65504 65504 65504 65504 65504 65504 65504 65504 65504 65504 65504 65504 65504 65504 65504 65504 65504 65504 65504 65504 65504 65504 65504 65504 65504 65504 65504 65504 65504 65504 65504 65504 65504 65504 65504 65504 65504 65504 65504 65504 65504 65504 65504 65504 65504 65504 65504 65504 65504 65504 65504 65504 65504 65504 65504 65504 65504 65504 65504 65504 65504 65504 65504 65504 65504 65504 65504 65504 65504 65504 65504 65504 65504 65504 65504 65504 65504 65504 65504 65504 65504 65504 65504 65504 65504 65504 65504 65504 65504 65504 65504 65504 65504 65504 65504 65504 65504 65504 65504 65504 65504 65504 65504 65504 65504 65504 65504 65504 65504 65504 65504 65504 65504 65504 65504 65504 65504 65504 65504 65504 65504 65504 65504 65504 65504 65504 65504 65504 65504 65504 65504 65504 65504 65504 65504 65504 65504 65504 65504 65504 65504 65504 65504 65504 65504 65504 65504 65504 65504 65504 65504 65504 65504 65504 65504 65504 65504 65504 65504 65504 65504 65504 65504 65504 65504 65504 65504 65504 65504 65504 65504 65504 65504 65504 65504 65504 65504 65504 65504 65504 65504 65504 65504 65504
24.8906 24.8594 24.8125 24.7656 24.7344 24.6875 24.6563 24.6094 24.5625 24.5313 24.4844 24.4531 24.4063 24.375 24.4531 24.5 24.4688 24.4219 24.3906 24.3438 24.3125 24.2813 24.0313 24 23.9531 23.9219 23.8906 23.8438 23.8125 23.7813 23.75 23.7031 23.6719 23.7031 23.8125 23.7813 23.7344 23.7031 23.6719 23.6406 23.6094 23.375 23.3438 23.3125 23.2813 23.2344 23.2031 23.1719 23.1406 23.1094 23.0938 23.0625 23.0313 23 22.9688 23.0938 23.1094 23.0781 23.0469 23.0156 22.9844 22.9531 22.9375 22.7031 22.6875 22.6563 22.625 22.5938 22.5781 22.5469 22.5156 22.5 22.4688 22.4375 22.4219 22.5156 22.5625 22.5313 22.5156 22.4844 22.4688 22.4375 22.4063 22.3906 22.1719 22.1563 22.125 22.1094 22.0938 22.0625 22.0469 22.0156 22 21.9844 21.9531 21.9375 21.9219 21.8906 21.875 21.8594 21.8438 21.8125 21.7969 21.7813 21.7656 21.75 21.7344 21.7031 21.6875 21.6719 21.6563 21.6406 21.625 21.6094 21.5938 21.5781 21.5625 21.5469 21.5313 21.5156 21.5 21.4844 21.4688 21.4531 21.4375 21.4219 21.375 21.3594 21.3438 21.3281 21.3281 21.3125 21.2969 21.2813 21.2813 21.2656 21.25 21.2813 21.2656 21.25 21.25 21.2344 21.2344 21.2188 21.2031 21.2031 21.1875 21.1875 21.1719 21.1563 21.1563 21.1406 21.1406 21.125 21.125 21.1094 21.1094 21.0938 21.0938 21.0938 21.0781 21.0781 21.0781 21.0625 21.0625 21.0469 21.0469 21.0469 21.0469 21.0313 21.0313 21.0313 21.0313 21.0156 21.0156 21.0156 21.0156 21.0156 21 21 21 21 21.1719 21.1719 21.1719 21.1719 21.1719 21.1719 21.1719 21.1719 21.1719 21.1719 20.9844 20.9844 20.9844 20.9844 21 21 21 21 21 21 21 21 21 21.0156 21.0156 21.0156 21.0156 21.0156 21.0313 21.0313 21.2188 21.2188 21.2188 21.2344 21.2344 21.2344 21.25 21.25 21.25 21.2656 21.0781 21.0938 21.0938 21.1094 21.1094 21.1094 21.125 21.125 21.1406 21.1406 21.1563 21.1563 21.1719 21.1719 21.1875 21.1875 21.2031 21.2031 21.2188 21.2188 21.2344 65504 65504 65504 65504 65504 65504 65504 65504 65504 65504 65504 65504 65504 65504 65504 65504 65504 65504 65504 65504 65504 65504 65504 65504 65504 65504 65504 65504 65504 65504 65504 65504 65504 65504 65504 65504 65504 65504 65504 65504 65504 65504 65504 65504 65504 65504 65504 65504 65504 65504 65504 65504 65504 65504 65504 65504 65504 65504 65504 65504 65504 65504 65504 65504 65504 65504 65504 65504 65504 65504 65504 65504 65504 65504 65504 65504 65504 65504 65504 65504 65504 65504 65504 65504 65504 65504 65504 65504 65504 65504 65504 65504 65504 65504 65504 65504 65504 65504 65504 65504 65504 65504 65504 65504 65504 65504 65504 65504 65504 65504 65504 65504 65504 65504 65504 65504 65504 65504 65504 65504 65504 65504 65504 65504 65504 65504 65504 65504 65504 65504 65504 65504 65504 65504 65504 65504 65504 65504 65504 65504 65504 65504 65504 65504 65504 65504 65504 65504 65504 65504 65504 65504 65504 65504 65504 65504 65504 65504 65504 65504 65504 65504 65504 65504 65504 65504 65504 65504 65504 65504 65504 65504 65504 65504 65504 65504 65504 65504 65504 65504 65504 65504 65504 65504 65504 65504 65504 65504 65504 65504 65504 65504 65504 65504 65504 65504 65504
24.9063 24.8594 24.8281 24.7813 24.7344 24.7031 24.6563 24.625 24.5781 24.5469 24.5 24.4688 24.4219 24.3906 24.4688 24.5156 24.4688 24.4375 24.4063 24.3594 24.3281 24.2813 24.0469 24 23.9688 23.9375 23.8906 23.8594 23.8281 23.7969 23.75 23.7188 23.6875 23.7188 23.8125 23.7813 23.75 23.7188 23.6875 23.6563 23.6094 23.5781 23.3438 23.3125 23.2813 23.25 23.2188 23.1875 23.1563 23.125 23.0938 23.0625 23.0313 23 22.9688 23.0938 23.1094 23.0781 23.0625 23.0313 23 22.9688 22.9375 22.7188 22.6875 22.6563 22.6406 22.6094 22.5781 22.5625 22.5313 22.5 22.4844 22.4531 22.4219 22.5156 22.5625 22.5469 22.5156 22.5 22.4688 22.4531 22.4219 22.4063 22.1875 22.1563 22.1406 22.125 22.0938 22.0781 22.0469 22.0313 22.0156 21.9844 21.9688 21.9531 21.9219 21.9063 21.8906 21.875 21.8438 21.8281 21.8125 21.7969 21.7813 21.75 21.7344 21.7188 21.7031 21.6875 21.6719 21.6563 21.6406 21.625 21.5938 21.5781 21.5625 21.5469 21.5313 21.5313 21.5156 21.5 21.4844 21.4688 21.4531 21.4375 21.4219 21.4063 21.3594 21.3438 21.3281 21.3281 21.3125 21.2969 21.2813 21.3125 21.2969 21.2969 21.2813 21.2656 21.25 21.25 21.2344 21.2344 21.2188 21.2031 21.2031 21.1875 21.1875 21.1719 21.1563 21.1563 21.1406 21.1406 21.125 21.125 21.125 21.1094 21.1094 21.0938 21.0938 21.0781 21.0781 21.0781 21.0625 21.0625 21.0625 21.0469 21.0469 21.0469 21.0469 21.0313 21.0313 21.0313 21.0313 21.0156 21.0156 21.0156 21.0156 21.0156 21.0156 21.0156 21.1875 21.1875 21.1875 21.1875 21.1875 21.1875 21.1875 21.1875 21.1875 21.1875 21 21 21 21 21 21 21 21 21.0156 21.0156 21.0156 21.0156 21.0156 21.0156 21.0156 21.0313 21.0313 21.0313 21.0313 21.0469 21.2188 21.2344 21.2344 21.2344 21.2344 21.25 21.25 21.25 21.2656 21.2656 21.0938 21.0938 21.1094 21.1094 21.125 21.125 21.125 21.1406 21.1406 21.1563 21.1563 21.1719 21.1719 21.1875 21.1875 21.2031 21.2031 21.2188 21.2188 21.2344 21.25 65504 65504 65504 65504 65504 65504 65504 65504 65504 65504 65504 65504 65504 65504 65504 65504 65504 65504 65504 65504 65504 65504 65504 65504 65504 65504 65504 65504 65504 65504 65504 65504 65504 65504 65504 65504 65504 65504 65504 65504 65504 65504 65504 65504 65504 65504 65504 65504 65504 65504 65504 65504 65504 65504 65504 65504 65504 65504 65504 65504 65504 65504 65504 65504 65504 65504 65504 65504 65504 65504 65504 65504 65504 65504 65504 65504 65504 65504 65504 65504 65504 65504 65504 65504 65504 65504 65504 65504 65504 65504 65504 65504 65504 65504 65504 65504 65504 65504 65504 65504 65504 65504 65504 65504 65504 65504 65504 65504 65504 65504 65504 65504 65504 65504 65504 65504 65504 65504 65504 65504 65504 65504 65504 65504 65504 65504 65504 65504 65504 65504 65504 65504 65504 65504 65504 65504 65504 65504 65504 65504 65504 65504 65504 65504 65504 65504 65504 65504 65504 65504 65504 65504 65504 65504 65504 65504 65504 65504 65504 65504 65504 65504 65504 65504 65504 65504 65504 65504 65504 65504 65504 65504 65504 65504 65504 65504 65504 65504 65504 65504 65504 65504 65504 65504 65504 65504 65504 65504 65504 65504 65504 65504 65504 65504 65504 65504 65504
24.9219 24.875 24.8281 24.7969 24.75 24.7188 24.6719 24.625 24.5938 24.5469 24.5156 24.4688 24.4375 24.3906 24.4531 24.4219 24.3906 24.375 24.3438 24.3125 24.2969 24.2656 24.0469 24.0156 23.9844 23.9375 23.9063 23.875 23.8281 23.7969 23.7656 23.7344 23.7031 23.7188 23.8281 23.7969 23.7656 23.7344 23.6875 23.6563 23.625 23.5938 23.3594 23.3281 23.2969 23.2656 23.2344 23.2031 23.1719 23.1406 23.1094 23.0781 23.0469 23.0156 22.9844 23.1094 23.125 23.0938 23.0625 23.0313 23.0156 22.9844 22.9531 22.7344 22.7031 22.6719 22.6406 22.625 22.5938 22.5625 22.5469 22.5156 22.4844 22.4688 22.4375 22.5313 22.5781 22.5625 22.5313 22.5 22.4844 22.4531 22.4375 22.4063 22.2031 22.1719 22.1563 22.125 22.1094 22.0781 22.0625 22.0469 22.0156 22 21.9844 21.9531 21.9375 21.9219 21.9063 21.875 21.8594 21.8438 21.8281 21.7969 21.7813 21.7656 21.75 21.7344 21.7188 21.6875 21.6719 21.6563 21.6406 21.625 21.6094 21.5938 21.5781 21.5625 21.5469 21.5313 21.5156 21.5 21.4844 21.4688 21.4688 21.4531 21.4375 21.4219 21.4063 21.3906 21.375 21.375 21.3594 21.3438 21.3281 21.3281 21.3125 21.2969 21.2813 21.2813 21.2656 21.25 21.25 21.2344 21.2344 21.2188 21.2031 21.2031 21.1875 21.1875 21.1719 21.1719 21.1563 21.1563 21.1406 21.1406 21.125 21.125 21.1094 21.1094 21.1094 21.0938 21.0938 21.0781 21.0781 21.0781 21.0625 21.0625 21.0625 21.0469 21.0469 21.0469 21.0469 21.0469 21.0313 21.0313 21.0313 21.0313 21.0313 21.0156 21.0156 21.0156 21.2031 21.1875 21.1875 21.1875 21.1875 21.1875 21.1875 21.1875 21.1875 21.1875 21.0156 21.0156 21.0156 21.0156 21.0156 21.0156 21.0156 21.0156 21.0156 21.0156 21.0156 21.0313 21.0313 21.0313 21.0313 21.0313 21.0313 21.0469 21.0469 21.0469 21.2344 21.2344 21.2344 21.25 21.25 21.25 21.2656 21.2656 21.2656 21.2813 21.1094 21.1094 21.1094 21.125 21.125 21.1406 21.1406 21.1406 21.1563 21.1563 21.1719 21.1719 21.1875 21.1875 21.2031 21.2031 21.2188 21.2188 21.2344 21.25 65504 65504 65504 65504 65504 65504 65504 65504 65504 65504 65504 65504 65504 65504 65504 65504 65504 65504 65504 65504 65504 65504 65504 65504 65504 65504 65504 65504 65504 65504 65504 65504 65504 65504 65504 65504 65504 65504 65504 65504 65504 65504 65504 65504 65504 65504 65504 65504 65504 65504 65504 65504 65504 65504 65504 65504 65504 65504 65504 65504 65504 65504 65504 65504 65504 65504 65504 65504 65504 65504 65504 65504 65504 65504 65504 65504 65504 65504 65504 65504 65504 65504 65504 65504 65504 65504 65504 65504 65504 65504 65504 65504 65504 65504 65504 65504 65504 65504 65504 65504 65504 65504 65504 65504 65504 65504 65504 65504 65504 65504 65504 65504 65504 65504 65504 65504 65504 65504 65504 65504 65504 65504 65504 65504 65504 65504 65504 65504 65504 65504 65504 65504 65504 65504 65504 65504 65504 65504 65504 65504 65504 65504 65504 65504 65504 65504 65504 65504 65504 65504 65504 65504 65504 65504 65504 65504 65504 65504 65504 65504 65504 65504 65504 65504 65504 65504 65504 65504 65504 65504 65504 65504 65504 65504 65504 65504 65504 65504 65504 65504 65504 65504 65504 65504 65504 65504 65504 65504 65504 65504 65504 65504 65504 65504 65504 65504 65504 65504
24.9219 24.8906 24.8438 24.8125 24.7656 24.7188 24.6875 24.6406 24.6094 24.5625 24.5156 24.4844 24.375 24.3281 24.2969 24.25 24.2188 24.1719 24.1406 24.1094 24.0625 24.0313 23.9844 24 23.9844 23.9531 23.9219 23.875 23.8438 23.8125 23.7813 23.6719 23.6406 23.5938 23.5625 23.5313 23.5 23.4688 23.4375 23.3906 23.3594 23.3281 23.3125 23.3438 23.3125 23.2813 23.25 23.2188 23.1875 23.1563 23.125 23.0938 23.0625 23.0313 23 23.0625 23.0469 23.0156 23 22.9844 22.9688 22.9531 22.9375 22.7344 22.7188 22.6875 22.6563 22.625 22.6094 22.5781 22.5469 22.5313 22.5 22.4688 22.4531 22.5313 22.5938 22.5625 22.5469 22.5156 22.5 22.4688 22.4531 22.4219 22.2031 22.1875 22.1563 22.1406 22.125 22.0938 22.0781 22.0469 22.0313 22.0156 21.9844 21.9688 21.9531 21.9219 21.9063 21.8906 21.875 21.8438 21.8281 21.8125 21.7969 21.7813 21.7656 21.7344 21.7188 21.7031 21.6875 21.6719 21.6563 21.6406 21.625 21.6094 21.5938 21.5781 21.5625 21.5469 21.5313 21.5156 21.5 21.4844 21.4688 21.4531 21.4375 21.4375 21.4219 21.4063 21.3906 21.375 21.375 21.3594 21.3438 21.3281 21.3281 21.3125 21.2969 21.2813 21.2813 21.2656 21.25 21.25 21.2344 21.2344 21.2188 21.2031 21.2031 21.1875 21.1875 21.1719 21.1719 21.1563 21.1563 21.1406 21.1406 21.125 21.125 21.125 21.1094 21.1094 21.0938 21.0938 21.0938 21.0781 21.0781 21.0781 21.0625 21.0625 21.0625 21.0625 21.0469 21.0469 21.0469 21.0469 21.0469 21.0313 21.0313 21.0313 21.0313 21.0313 21.2031 21.2031 21.2031 21.2031 21.2031 21.2031 21.2031 21.2031 21.2031 21.2031 21.0156 21.0156 21.0156 21.0156 21.0156 21.0156 21.0313 21.0313 21.0313 21.0313 21.0313 21.0313 21.0313 21.0313 21.0469 21.0469 21.0469 21.0469 21.0625 21.0625 21.25 21.25 21.25 21.25 21.2656 21.2656 21.2656 21.2813 21.2813 21.2813 21.1094 21.125 21.125 21.125 21.1406 21.1406 21.1563 21.1563 21.1563 21.1719 21.1719 21.1875 21.1875 21.2031 21.2031 21.2188 21.2188 21.2344 21.25 21.25 65504 65504 65504 65504 65504 65504 65504 65504 65504 65504 65504 65504 65504 65504 65504 65504 65504 65504 65504 65504 65504 65504 65504 65504 65504 65504 65504 65504 65504 65504 65504 65504 65504 65504 65504 65504 65504 65504 65504 65504 65504 65504 65504 65504 65504 65504 65504 65504 65504 65504 65504 65504 65504 65504 65504 65504 65504 65504 65504 65504 65504 65504 65504 65504 65504 65504 65504 65504 65504 65504 65504 65504 65504 65504 65504 65504 65504 65504 65504 65504 65504 65504 65504 65504 65504 65504 65504 65504 65504 65504 65504 65504 65504 65504 65504 65504 65504 65504 65504 65504 65504 65504 65504 65504 65504 65504 65504 65504 65504 65504 65504 65504 65504 65504 65504 65504 65504 65504 65504 65504 65504 65504 65504 65504 65504 65504 65504 65504 65504 65504 65504 65504 65504 65504 65504 65504 65504 65504 65504 65504 65504 65504 65504 65504 65504 65504 65504 65504 65504 65504 65504 65504 65504 65504 65504 65504 65504 65504 65504 65504 65504 65504 65504 65504 65504 65504 65504 65504 65504 65504 65504 65504 65504 65504 65504 65504 65504 65504 65504 65504 65504 65504 65504 65504 65504 65504 65504 65504 65504 65504 65504 65504 65504 65504 65504 65504 65504 65504
24.9375 24.9063 24.8594 24.8125 24.7813 24.7344 24.6875 24.6563 24.6094 24.5781 24.5313 24.5 24.375 24.3438 24.2969 24.2656 24.2344 24.1875 24.1563 24.1094 24.0781 24.0469 24 24 24 23.9688 23.9375 23.8906 23.8594 23.8281 23.7813 23.6875 23.6406 23.6094 23.5781 23.5469 23.5156 23.4688 23.4375 23.4063 23.375 23.3438 23.3125 23.3438 23.3125 23.2813 23.25 23.2188 23.1875 23.1563 23.125 23.0938 23.0625 22.9688 22.9375 22.9063 22.875 22.8438 22.8281 22.7969 22.7656 22.7344 22.7031 22.6875 22.6563 22.6875 22.6719 22.6406 22.6094 22.5938 22.5625 22.5313 22.5156 22.4219 22.3906 22.3594 22.3438 22.3125 22.2969 22.2656 22.25 22.2188 22.2031 22.1875 22.1719 22.1875 22.1719 22.1563 22.125 22.1094 22.0781 22.0625 22.0469 22.0156 22 21.9844 21.9531 21.9375 21.9219 21.9063 21.875 21.8594 21.8438 21.8281 21.8125 21.7813 21.7656 21.75 21.7344 21.7188 21.7031 21.6875 21.6719 21.6563 21.625 21.6094 21.5938 21.5781 21.5625 21.5625 21.5469 21.5313 21.5156 21.5 21.4844 21.4688 21.4531 21.4375 21.4219 21.4219 21.4063 21.3906 21.375 21.3594 21.3594 21.3438 21.3281 21.3125 21.3125 21.2969 21.2813 21.2813 21.2656 21.25 21.25 21.2344 21.2344 21.2188 21.2188 21.2031 21.1875 21.1875 21.1719 21.1719 21.1563 21.1563 21.1406 21.1406 21.1406 21.125 21.125 21.1094 21.1094 21.1094 21.0938 21.0938 21.0938 21.0781 21.0781 21.0781 21.0781 21.0625 21.0625 21.0625 21.0625 21.0469 21.0469 21.0469 21.0469 21.0469 21.0469 21.0313 21.2188 21.2188 21.2188 21.2188 21.2188 21.2031 21.2031 21.2031 21.2031 21.2031 21.0313 21.0313 21.0313 21.0313 21.0313 21.0313 21.0313 21.0313 21.0313 21.0469 21.0469 21.0469 21.0469 21.0469 21.0469 21.0469 21.0625 21.0625 21.0625 21.0625 21.25 21.25 21.2656 21.2656 21.2656 21.2813 21.2813 21.2813 21.2969 21.2969 21.125 21.125 21.1406 21.1406 21.1406 21.1563 21.1563 21.1719 21.1719 21.1875 21.1875 21.2031 21.2031 21.2031 21.2188 21.2344 21.2344 21.25 21.25 21.2656 65504 65504 65504 65504 65504 65504 65504 65504 65504 65504 65504 65504 65504 65504 65504 65504 65504 65504 65504 65504 65504 65504 65504 65504 65504 65504 65504 65504 65504 65504 65504 65504 65504 65504 65504 65504 65504 65504 65504 65504 65504 65504 65504 65504 65504 65504 65504 65504 65504 65504 65504 65504 65504 65504 65504 65504 65504 65504 65504 65504 65504 65504 65504 65504 65504 65504 65504 65504 65504 65504 65504 65504 65504 65504 65504 65504 65504 65504 65504 65504 65504 65504 65504 65504 65504 65504 65504 65504 65504 65504 65504 65504 65504 65504 65504 65504 65504 65504 65504 65504 65504 65504 65504 65504 65504 65504 65504 65504 65504 65504 65504 65504 65504 65504 65504 65504 65504 65504 65504 65504 65504 65504 65504 65504 65504 65504 65504 65504 65504 65504 65504 65504 65504 65504 65504 65504 65504 65504 65504 65504 65504 65504 65504 65504 65504 65504 65504 65504 65504 65504 65504 65504 65504 65504 65504 65504 65504 65504 65504 65504 65504 65504 65504 65504 65504 65504 65504 65504 65504 65504 65504 65504 65504 65504 65504 65504 65504 65504 65504 65504 65504 65504 65504 65504 65504 65504 65504 65504 65504 65504 65504 65504 65504 65504 65504 65504 65504 65504
24.9531 24.9063 24.875 24.8281 24.7813 24.75 24.7031 24.6719 24.625 24.5781 24.5469 24.5 24.4688 24.4219 24.3906 24.3438 24.3125 24.2813 24.2344 24.2031 24.1563 24.125 24.0938 24.0469 24.0156 23.9844 23.9375 23.9063 23.875 23.8281 23.7969 23.7656 23.7344 23.6875 23.6563 23.625 23.5938 23.5625 23.5156 23.4531 23.4063 23.3594 23.3281 23.3594 23.3281 23.2969 23.2656 23.2344 23.2031 23.1719 23.1406 23.1094 23.0781 22.9844 22.9531 22.9219 22.8906 22.8594 22.8281 22.8125 22.7813 22.75 22.7188 22.6875 22.6719 22.7031 22.6719 22.6563 22.625 22.5938 22.5781 22.5469 22.5156 22.4219 22.4063 22.375 22.3594 22.3281 22.2969 22.2813 22.25 22.2344 22.2031 22.1875 22.1563 22.1875 22.1875 22.1563 22.1406 22.125 22.0938 22.0781 22.0469 22.0313 22.0156 21.9844 21.9688 21.9531 21.9375 21.9063 21.8906 21.875 21.8594 21.8281 21.8125 21.7969 21.7813 21.7656 21.75 21.7344 21.7031 21.6875 21.6719 21.6563 21.6406 21.625 21.6094 21.5938 21.5781 21.5625 21.5469 21.5313 21.5156 21.5 21.5 21.4844 21.4688 21.4531 21.4375 21.4219 21.4063 21.4063 21.3906 21.375 21.3594 21.3594 21.3438 21.3281 21.3125 21.3125 21.2969 21.2813 21.2813 21.2656 21.2656 21.25 21.2344 21.2344 21.2188 21.2188 21.2031 21.2031 21.1875 21.1875 21.1719 21.1719 21.1563 21.1563 21.1406 21.1406 21.125 21.125 21.125 21.1094 21.1094 21.1094 21.0938 21.0938 21.0938 21.0781 21.0781 21.0781 21.0781 21.0625 21.0625 21.0625 21.0625 21.0625 21.0625 21.0469 21.0469 21.0469 21.2344 21.2188 21.2188 21.2188 21.2188 21.2188 21.2188 21.2188 21.2188 21.2188 21.0469 21.0469 21.0469 21.0469 21.0469 21.0469 21.0469 21.0469 21.0469 21.0469 21.0469 21.0469 21.0625 21.0625 21.0625 21.0625 21.0625 21.0781 21.0781 21.0781 21.2656 21.2656 21.2656 21.2813 21.2813 21.2813 21.2969 21.2969 21.2969 21.3125 21.125 21.1406 21.1406 21.1563 21.1563 21.1563 21.1719 21.1719 21.1875 21.1875 21.2031 21.2031 21.2188 21.2188 21.2344 21.2344 21.25 21.25 21.2656 21.2656 65504 65504 65504 65504 65504 65504 65504 65504 65504 65504 65504 65504 65504 65504 65504 65504 65504 65504 65504 65504 65504 65504 65504 65504 65504 65504 65504 65504 65504 65504 65504 65504 65504 65504 65504 65504 65504 65504 65504 65504 65504 65504 65504 65504 65504 65504 65504 65504 65504 65504 65504 65504 65504 65504 65504 65504 65504 65504 65504 65504 65504 65504 65504 65504 65504 65504 65504 65504 65504 65504 65504 65504 65504 65504 65504 65504 65504 65504 65504 65504 65504 65504 65504 65504 65504 65504 65504 65504 65504 65504 65504 65504 65504 65504 65504 65504 65504 65504 65504 65504 65504 65504 65504 65504 65504 65504 65504 65504 65504 65504 65504 65504 65504 65504 65504 65504 65504 65504 65504 65504 65504 65504 65504 65504 65504 65504 65504 65504 65504 65504 65504 65504 65504 65504 65504 65504 65504 65504 65504 65504 65504 65504 65504 65504 65504 65504 65504 65504 65504 65504 65504 65504 65504 65504 65504 65504 65504 65504 65504 65504 65504 65504 65504 65504 65504 65504 65504 65504 65504 65504 65504 65504 65504 65504 65504 65504 65504 65504 65504 65504 65504 65504 65504 65504 65504 65504 65504 65504 65504 65504 65504 65504 65504 65504 65504 65504 65504 65504
24.9688 24.9219 24.875 24.8438 24.7969 24.7656 24.7188 24.6719 24.6406 24.5938 24.5625 24.5156 24.4844 24.4375 24.4063 24.3594 24.3281 24.2813 24.25 24.2031 24.1719 24.1406 24.0938 24.0625 24.0313 23.9844 23.9531 23.9219 23.875 23.8438 23.8125 23.7813 23.7344 23.7031 23.6719 23.6406 23.6094 23.5625 23.5313 23.5 23.4688 23.4375 23.4063 23.375 23.3438 23.3125 23.2813 23.25 23.2188 23.1875 23.1563 23.125 23.0938 23.0625 23.0313 23 22.9688 22.9375 22.9219 22.8906 22.8594 22.8281 22.7969 22.7656 22.75 22.7188 22.6875 22.6563 22.6406 22.6094 22.5781 22.5625 22.5313 22.5 22.4844 22.4531 22.4219 22.3906 22.3438 22.3125 22.2656 22.25 22.2188 22.2031 22.1719 22.2031 22.2031 22.1719 22.1563 22.125 22.1094 22.0781 22.0625 22.0469 22.0156 22 21.9844 21.9688 21.9375 21.9219 21.9063 21.8906 21.8594 21.8438 21.8281 21.8125 21.7969 21.7656 21.75 21.7344 21.7188 21.7031 21.6875 21.6719 21.6563 21.6406 21.625 21.6094 21.5938 21.5781 21.5625 21.5469 21.5313 21.5156 21.5 21.4844 21.4688 21.4688 21.4531 21.4375 21.4219 21.4063 21.4063 21.3906 21.375 21.3594 21.3594 21.3438 21.3281 21.3125 21.3125 21.2969 21.2813 21.2813 21.2656 21.2656 21.25 21.2344 21.2344 21.2188 21.2188 21.2031 21.2031 21.1875 21.1875 21.1719 21.1719 21.1563 21.1563 21.1563 21.1406 21.1406 21.125 21.125 21.125 21.1094 21.1094 21.1094 21.0938 21.0938 21.0938 21.0938 21.0781 21.0781 21.0781 21.0781 21.0781 21.0625 21.0625 21.0625 21.0625 21.0625 21.1875 21.1875 21.2031 21.2031 21.2188 21.2188 21.2344 21.2344 21.2344 21.2344 21.0469 21.0469 21.0469 21.0469 21.0469 21.0469 21.0625 21.0625 21.0625 21.0625 21.0625 21.0625 21.0625 21.0625 21.0781 21.0781 21.0781 21.0781 21.0781 21.0938 21.2813 21.2813 21.2813 21.2813 21.2969 21.2969 21.2969 21.3125 21.3125 21.3125 21.1406 21.1406 21.1563 21.1563 21.1719 21.1719 21.1719 21.1875 21.1875 21.2031 21.2031 21.2188 21.2188 21.2344 21.2344 21.25 21.25 21.2656 21.2656 21.2813 65504 65504 65504 65504 65504 65504 65504 65504 65504 65504 65504 65504 65504 65504 65504 65504 65504 65504 65504 65504 65504 65504 65504 65504 65504 65504 65504 65504 65504 65504 65504 65504 65504 65504 65504 65504 65504 65504 65504 65504 65504 65504 65504 65504 65504 65504 65504 65504 65504 65504 65504 65504 65504 65504 65504 65504 65504 65504 65504 65504 65504 65504 65504 65504 65504 65504 65504 65504 65504 65504 65504 65504 65504 65504 65504 65504 65504 65504 65504 65504 65504 65504 65504 65504 65504 65504 65504 65504 65504 65504 65504 65504 65504 65504 65504 65504 65504 65504 65504 65504 65504 65504 65504 65504 65504 65504 65504 65504 65504 65504 65504 65504 65504 65504 65504 65504 65504 65504 65504 65504 65504 65504 65504 65504 65504 65504 65504 65504 65504 65504 65504 65504 65504 65504 65504 65504 65504 65504 65504 65504 65504 65504 65504 65504 65504 65504 65504 65504 65504 65504 65504 65504 65504 65504 65504 65504 65504 65504 65504 65504 65504 65504 65504 65504 65504 65504 65504 65504 65504 65504 65504 65504 65504 65504 65504 65504 65504 65504 65504 65504 65504 65504 65504 65504 65504 65504 65504 65504 65504 65504 65504 65504 65504 65504 65504 65504 65504 65504
24.9688 24.9375 24.8906 24.8594 24.8125 24.7656 24.7344 24.6875 24.6563 24.6094 24.5625 24.5313 24.4844 24.4531 24.4063 24.375 24.3438 24.2969 24.2656 24.2188 24.1875 24.1406 24.1094 24.0781 24.0313 24 23.9688 23.9219 23.8906 23.8594 23.8281 23.7813 23.75 23.7188 23.6875 23.6563 23.6094 23.5781 23.5469 23.5156 23.4844 23.4531 23.4219 23.3906 23.3594 23.3125 23.2813 23.25 23.2188 23.1875 23.1563 23.1406 23.1094 23.0781 23.0469 23.0156 22.9844 22.9531 22.9219 22.8906 22.875 22.8438 22.8125 22.7813 22.75 22.7344 22.7031 22.6719 22.6563 22.625 22.5938 22.5625 22.5469 22.5156 22.5 22.4688 22.4375 22.4219 22.3906 22.375 22.3438 22.3281 22.2969 22.2813 22.25 22.2344 22.2031 22.1875 22.1563 22.1406 22.125 22.0938 22.0781 22.0625 22.0313 22.0156 22 21.9688 21.9531 21.9375 21.9063 21.8906 21.875 21.8594 21.8438 21.8125 21.7969 21.7813 21.7656 21.75 21.7344 21.7188 21.7031 21.6875 21.6719 21.6563 21.6406 21.625 21.6094 21.5938 21.5781 21.5625 21.5469 21.5313 21.5156 21.5 21.4844 21.4688 21.4531 21.4531 21.4375 21.4219 21.4063 21.4063 21.3906 21.375 21.3594 21.3594 21.3438 21.3281 21.3125 21.3125 21.2969 21.2969 21.2813 21.2656 21.2656 21.25 21.25 21.2344 21.2188 21.2188 21.2031 21.2031 21.1875 21.1875 21.1875 21.1719 21.1719 21.1563 21.1563 21.1406 21.1406 21.1406 21.125 21.125 21.125 21.1094 21.1094 21.1094 21.1094 21.0938 21.0938 21.0938 21.0938 21.0781 21.0781 21.0781 21.0781 21.0781 21 21 21 21 21 21 21 21 21 21 21 21 21 21 21.0625 21.0625 21.0625 21.0625 21.0625 21.0625 21.0625 21.0781 21.0781 21.0781 21.0781 21.0781 21.0781 21.0781 21.0938 21.0938 21.0938 21.0938 21.125 21.1406 21.1563 21.1719 21.1719 21.1875 21.2031 21.2188 21.2344 21.25 21.1563 21.1563 21.1563 21.1719 21.1719 21.1875 21.1875 21.2031 21.2031 21.2031 21.2188 21.2188 21.2344 21.2344 21.25 21.25 21.2656 21.2813 21.2813 21.2969 65504 65504 65504 65504 65504 65504 65504 65504 65504 65504 65504 65504 65504 65504 65504 65504 65504 65504 65504 65504 65504 65504 65504 65504 65504 65504 65504 65504 65504 65504 65504 65504 65504 65504 65504 65504 65504 65504 65504 65504 65504 65504 65504 65504 65504 65504 65504 65504 65504 65504 65504 65504 65504 65504 65504 65504 65504 65504 65504 65504 65504 65504 65504 65504 65504 65504 65504 65504 65504 65504 65504 65504 65504 65504 65504 65504 65504 65504 65504 65504 65504 65504 65504 65504 65504 65504 65504 65504 65504 65504 65504 65504 65504 65504 65504 65504 65504 65504 65504 65504 65504 65504 65504 65504 65504 65504 65504 65504 65504 65504 65504 65504 65504 65504 65504 65504 65504 65504 65504 65504 65504 65504 65504 65504 65504 65504 65504 65504 65504 65504 65504 65504 65504 65504 65504 65504 65504 65504 65504 65504 65504 65504 65504 65504 65504 65504 65504 65504 65504 65504 65504 65504 65504 65504 65504 65504 65504 65504 65504 65504 65504 65504 65504 65504 65504 65504 65504 65504 65504 65504 65504 65504 65504 65504 65504 65504 65504 65504 65504 65504 65504 65504 65504 65504 65504 65504 65504 65504 65504 65504 65504 65504 65504 65504 65504 65504 65504 65504
24.9844 24.9531 24.9063 24.8594 24.8281 24.7813 24.75 24.7031 24.6563 24.625 24.5781 24.5469 24.5 24.4688 24.4219 24.3906 24.3438 24.3125 24.2656 24.2344 24.2031 24.1563 24.125 24.0938 24.0469 24.0156 23.9844 23.9375 23.9063 23.875 23.8281 23.7969 23.7656 23.7344 23.6875 23.6563 23.625 23.5938 23.5625 23.5313 23.5 23.4531 23.4219 23.3906 23.3594 23.3281 23.2969 23.2656 23.2344 23.2031 23.1719 23.1406 23.1094 23.0781 23.0625 23.0313 23 22.9688 22.9375 22.9063 22.875 22.8594 22.8281 22.7969 22.7656 22.7344 22.7188 22.6875 22.6563 22.6406 22.6094 22.5781 22.5625 22.5313 22.5 22.4844 22.4531 22.4375 22.4063 22.375 22.3594 22.3281 22.3125 22.2813 22.2656 22.2344 22.2188 22.2031 22.1719 22.1563 22.125 22.1094 22.0938 22.0625 22.0469 22.0313 22 21.9844 21.9688 21.9375 21.9219 21.9063 21.8906 21.875 21.8438 21.8281 21.8125 21.7969 21.7813 21.7656 21.75 21.7188 21.7031 21.6875 21.6719 21.6563 21.6406 21.625 21.6094 21.5938 21.5781 21.5625 21.5625 21.5469 21.5313 21.5156 21.5 21.4844 21.4688 21.4531 21.4531 21.4375 21.4219 21.4063 21.3906 21.3906 21.375 21.3594 21.3594 21.3438 21.3281 21.3281 21.3125 21.2969 21.2969 21.2813 21.2656 21.2656 21.25 21.25 21.2344 21.2344 21.2188 21.2188 21.2031 21.2031 21.1875 21.1875 21.1719 21.1719 21.1719 21.1563 21.1563 21.1406 21.1406 21.1406 21.125 21.125 21.125 21.125 21.1094 21.1094 21.1094 21.1094 21.0938 21.0938 21.0938 21.0938 21.0938 21.0781 21.0156 21.0156 21.0156 21.0156 21.0156 21.0156 21.0156 21.0156 21.0156 21.0156 21 21 21 21.0156 21.0781 21.0781 21.0781 21.0781 21.0781 21.0781 21.0781 21.0781 21.0781 21.0781 21.0938 21.0938 21.0938 21.0938 21.0938 21.1094 21.0469 21.0469 21.0469 21.0469 21.0625 21.0625 21.0625 21.0781 21.0781 21.0781 21.0938 21.0938 21.0938 21.1094 21.1719 21.1875 21.1875 21.1875 21.2031 21.2031 21.2188 21.2188 21.2344 21.2344 21.25 21.25 21.2656 21.2656 21.2813 21.2813 21.2969 21.2969 65504 65504 65504 65504 65504 65504 65504 65504 65504 65504 65504 65504 65504 65504 65504 65504 65504 65504 65504 65504 65504 65504 65504 65504 65504 65504 65504 65504 65504 65504 65504 65504 65504 65504 65504 65504 65504 65504 65504 65504 65504 65504 65504 65504 65504 65504 65504 65504 65504 65504 65504 65504 65504 65504 65504 65504 65504 65504 65504 65504 65504 65504 65504 65504 65504 65504 65504 65504 65504 65504 65504 65504 65504 65504 65504 65504 65504 65504 65504 65504 65504 65504 65504 65504 65504 65504 65504 65504 65504 65504 65504 65504 65504 65504 65504 65504 65504 65504 65504 65504 65504 65504 65504 65504 65504 65504 65504 65504 65504 65504 65504 65504 65504 65504 65504 65504 65504 65504 65504 65504 65504 65504 65504 65504 65504 65504 65504 65504 65504 65504 65504 65504 65504 65504 65504 65504 65504 65504 65504 65504 65504 65504 65504 65504 65504 65504 65504 65504 65504 65504 65504 65504 65504 65504 65504 65504 65504 65504 65504 65504 65504 65504 65504 65504 65504 65504 65504 65504 65504 65504 65504 65504 65504 65504 65504 65504 65504 65504 65504 65504 65504 65504 65504 65504 65504 65504 65504 65504 65504 65504 65504 65504 65504 65504 65504 65504 65504 65504
25 24.9531 24.9219 24.875 24.8438 24.7969 24.75 24.7188 24.6719 24.6406 24.5938 24.5625 24.5156 24.4844 24.4375 24.4063 24.3594 24.3281 24.2813 24.25 24.2031 24.1719 24.1406 24.0938 24.0625 24.0313 23.9844 23.9531 23.9219 23.875 23.8438 23.8125 23.7813 23.7344 23.7031 23.6719 23.6406 23.6094 23.5781 23.5313 23.5 23.4688 23.4375 23.4063 23.375 23.3438 23.3125 23.2813 23.25 23.2188 23.1875 23.1563 23.125 23.0938 23.0625 23.0313 23.0156 22.9844 22.9531 22.9219 22.8906 22.8594 22.8281 22.8125 22.7813 22.75 22.7188 22.7031 22.6719 22.6406 22.625 22.5938 22.5625 22.5469 22.5156 22.4844 22.4688 22.4375 22.4219 22.3906 22.375 22.3438 22.3281 22.2969 22.2813 22.25 22.2344 22.2031 22.1875 22.1563 22.1406 22.125 22.0938 22.0781 22.0625 22.0313 22.0156 22 21.9688 21.9531 21.9375 21.9219 21.9063 21.875 21.8594 21.8438 21.8281 21.8125 21.7969 21.7656 21.75 21.7344 21.7188 21.7031 21.6875 21.6719 21.6563 21.6406 21.625 21.6094 21.5938 21.5781 21.5625 21.5469 21.5313 21.5313 21.5156 21.5 21.4844 21.4688 21.4531 21.4531 21.4375 21.4219 21.4063 21.3906 21.3906 21.375 21.3594 21.3594 21.3438 21.3281 21.3281 21.3125 21.2969 21.2969 21.2813 21.2813 21.2656 21.25 21.25 21.2344 21.2344 21.2188 21.2188 21.2031 21.2031 21.2031 21.1875 21.1875 21.1719 21.1719 21.1719 21.1563 21.1563 21.1406 21.1406 21.1406 21.1406 21.125 21.125 21.125 21.1094 21.1094 21.1094 21.1094 21.1094 21.0938 21.0938 21.0938 21.0938 21.0938 21.0938 21.0938 21.0938 21.0781 21.0781 21.0781 21.0781 21.0781 21.0781 21.0781 21.0781 21.0781 21.0781 21.0781 21.0781 21.0781 21.0938 21.0938 21.0938 21.0938 21.0938 21.0938 21.0938 21.0938 21.1094 21.1094 21.1094 21.1094 21.0469 21.0625 21.0625 21.0625 21.0625 21.0781 21.0781 21.0781 21.0938 21.0938 21.0938 21.1094 21.1094 21.1094 21.1875 21.1875 21.2031 21.2031 21.2031 21.2188 21.2188 21.2344 21.2344 21.25 21.25 21.2656 21.2656 21.2813 21.2813 21.2969 21.2969 21.3125 65504 65504 65504 65504 65504 65504 65504 65504 65504 65504 65504 65504 65504 65504 65504 65504 65504 65504 65504 65504 65504 65504 65504 65504 65504 65504 65504 65504 65504 65504 65504 65504 65504 65504 65504 65504 65504 65504 65504 65504 65504 65504 65504 65504 65504 65504 65504 65504 65504 65504 65504 65504 65504 65504 65504 65504 65504 65504 65504 65504 65504 65504 65504 65504 65504 65504 65504 65504 65504 65504 65504 65504 65504 65504 65504 65504 65504 65504 65504 65504 65504 65504 65504 65504 65504 65504 65504 65504 65504 65504 65504 65504 65504 65504 65504 65504 65504 65504 65504 65504 65504 65504 65504 65504 65504 65504 65504 65504 65504 65504 65504 65504 65504 65504 65504 65504 65504 65504 65504 65504 65504 65504 65504 65504 65504 65504 65504 65504 65504 65504 65504 65504 65504 65504 65504 65504 65504 65504 65504 65504 65504 65504 65504 65504 65504 65504 65504 65504 65504 65504 65504 65504 65504 65504 65504 65504 65504 65504 65504 65504 65504 65504 65504 65504 65504 65504 65504 65504 65504 65504 65504 65504 65504 65504 65504 65504 65504 65504 65504 65504 65504 65504 65504 65504 65504 65504 65504 65504 65504 65504 65504 65504 65504 65504 65504 65504 65504 65504
25.0156 24.9688 24.9375 24.8906 24.8438 24.8125 24.7656 24.7344 24.6875 24.6406 24.6094 24.5625 24.5313 24.4844 24.4531 24.4063 24.375 24.3281 24.2969 24.2656 24.2188 24.1875 24.1406 24.1094 24.0781 24.0313 24 23.9688 23.9375 23.8906 23.8594 23.8281 23.7969 23.75 23.7188 23.6875 23.6563 23.625 23.5781 23.5469 23.5156 23.4844 23.4531 23.4219 23.3906 23.3594 23.3281 23.2969 23.2656 23.2344 23.2031 23.1719 23.1406 23.1094 23.0781 23.0469 23.0156 22.9844 22.9688 22.9375 22.9063 22.875 22.8438 22.8281 22.7969 22.7656 22.7344 22.7188 22.6875 22.6563 22.625 22.6094 22.5781 22.5469 22.5313 22.5 22.4844 22.4531 22.4375 22.4063 22.375 22.3594 22.3281 22.3125 22.2813 22.2656 22.25 22.2188 22.2031 22.1719 22.1563 22.125 22.1094 22.0938 22.0625 22.0469 22.0313 22.0156 21.9844 21.9688 21.9531 21.9375 21.9063 21.8906 21.875 21.8594 21.8438 21.8125 21.7969 21.7813 21.7656 21.75 21.7344 21.7188 21.7031 21.6875 21.6719 21.6563 21.6406 21.625 21.6094 21.5938 21.5781 21.5625 21.5469 21.5313 21.5156 21.5156 21.5 21.4844 21.4688 21.4531 21.4375 21.4375 21.4219 21.4063 21.3906 21.3906 21.375 21.3594 21.3594 21.3438 21.3281 21.3281 21.3125 21.3125 21.2969 21.2813 21.2813 21.2656 21.2656 21.25 21.25 21.2344 21.2344 21.2188 21.2188 21.2031 21.2031 21.1875 21.1875 21.1875 21.1719 21.1719 21.1719 21.1563 21.1563 21.1563 21.1406 21.1406 21.1406 21.125 21.125 21.125 21.125 21.125 21.1094 21.1094 21.1094 21.1094 21.1094 21.1094 21.0938 21.0938 21.0938 21.0938 21.0938 21.0938 21.0938 21.0938 21.0938 21.0938 21.0938 21.0938 21.0938 21.0938 21.0938 21.0938 21.0938 21.0938 21.0938 21.1094 21.1094 21.1094 21.1094 21.1094 21.1094 21.125 21.125 21.125 21.125 21.125 21.1406 21.1406 21.1406 21.1406 21.1563 21.1563 21.1563 21.1719 21.1719 21.1719 21.1875 21.1875 21.2031 21.2031 21.2031 21.2188 21.2188 21.2344 21.2344 21.25 21.25 21.25 21.2656 21.2656 21.2813 21.2969 21.2969 21.3125 21.3125 21.3281 65504 65504 65504 65504 65504 65504 65504 65504 65504 65504 65504 65504 65504 65504 65504 65504 65504 65504 65504 65504 65504 65504 65504 65504 65504 65504 65504 65504 65504 65504 65504 65504 65504 65504 65504 65504 65504 65504 65504 65504 65504 65504 65504 65504 65504 65504 65504 65504 65504 65504 65504 65504 65504 65504 65504 65504 65504 65504 65504 65504 65504 65504 65504 65504 65504 65504 65504 65504 65504 65504 65504 65504 65504 65504 65504 65504 65504 65504 65504 65504 65504 65504 65504 65504 65504 65504 65504 65504 65504 65504 65504 65504 65504 65504 65504 65504 65504 65504 65504 65504 65504 65504 65504 65504 65504 65504 65504 65504 65504 65504 65504 65504 65504 65504 65504 65504 65504 65504 65504 65504 65504 65504 65504 65504 65504 65504 65504 65504 65504 65504 65504 65504 65504 65504 65504 65504 65504 65504 65504 65504 65504 65504 65504 65504 65504 65504 65504 65504 65504 65504 65504 65504 65504 65504 65504 65504 65504 65504 65504 65504 65504 65504 65504 65504 65504 65504 65504 65504 65504 65504 65504 65504 65504 65504 65504 65504 65504 65504 65504 65504 65504 65504 65504 65504 65504 65504 65504 65504 65504 65504 65504 65504 65504 65504 65504 65504 65504 65504
25.0313 24.9844 24.9375 24.9063 24.8594 24.8281 24.7813 24.7344 24.7031 24.6563 24.625 24.5781 24.5469 24.5 24.4688 24.4219 24.3906 24.3438 24.3125 24.2656 24.2344 24.2031 24.1563 24.125 24.0938 24.0469 24.0156 23.9844 23.9375 23.9063 23.875 23.8438 23.7969 23.7656 23.7344 23.7031 23.6719 23.625 23.5938 23.5625 23.5313 23.5 23.4688 23.4375 23.4063 23.375 23.3438 23.3125 23.2813 23.25 23.2188 23.1875 23.1563 23.125 23.0938 23.0625 23.0313 23 22.9688 22.9531 22.9219 22.8906 22.8594 22.8281 22.8125 22.7813 22.75 22.7188 22.7031 22.6719 22.6406 22.625 22.5938 22.5625 22.5469 22.5156 22.4844 22.4688 22.4375 22.4219 22.3906 22.375 22.3438 22.3281 22.2969 22.2813 22.25 22.2344 22.2031 22.1875 22.1719 22.1406 22.125 22.1094 22.0781 22.0625 22.0469 22.0156 22 21.9844 21.9688 21.9375 21.9219 21.9063 21.8906 21.875 21.8438 21.8281 21.8125 21.7969 21.7813 21.7656 21.75 21.7344 21.7188 21.7031 21.6875 21.6719 21.6563 21.6406 21.625 21.6094 21.5938 21.5781 21.5625 21.5469 21.5313 21.5156 21.5 21.5 21.4844 21.4688 21.4531 21.4375 21.4375 21.4219 21.4063 21.4063 21.3906 21.375 21.3594 21.3594 21.3438 21.3281 21.3281 21.3125 21.3125 21.2969 21.2969 21.2813 21.2656 21.2656 21.25 21.25 21.2344 21.2344 21.2188 21.2188 21.2188 21.2031 21.2031 21.1875 21.1875 21.1875 21.1719 21.1719 21.1719 21.1563 21.1563 21.1563 21.1406 21.1406 21.1406 21.1406 21.125 21.125 21.125 21.125 21.125 21.125 21.1094 21.1094 21.1094 21.1094 21.1094 21.1094 21.1094 21.1094 21.1094 21.1094 21.1094 21.1094 21.1094 21.1094 21.1094 21.1094 21.1094 21.1094 21.1094 21.1094 21.1094 21.1094 21.1094 21.125 21.125 21.125 21.125 21.125 21.125 21.1406 21.1406 21.1406 21.1406 21.1563 21.1563 21.1563 21.1563 21.1719 21.1719 21.1719 21.1875 21.1875 21.1875 21.2031 21.2031 21.2188 21.2188 21.2188 21.2344 21.2344 21.25 21.25 21.2656 21.2656 21.2813 21.2813 21.2969 21.2969 21.3125 21.3125 21.3281 21.3281 65504 65504 65504 65504 65504 65504 65504 65504 65504 65504 65504 65504 65504 65504 65504 65504 65504 65504 65504 65504 65504 65504 65504 65504 65504 65504 65504 65504 65504 65504 65504 65504 65504 65504 65504 65504 65504 65504 65504 65504 65504 65504 65504 65504 65504 65504 65504 65504 65504 65504 65504 65504 65504 65504 65504 65504 65504 65504 65504 65504 65504 65504 65504 65504 65504 65504 65504 65504 65504 65504 65504 65504 65504 65504 65504 65504 65504 65504 65504 65504 65504 65504 65504 65504 65504 65504 65504 65504 65504 65504 65504 65504 65504 65504 65504 65504 65504 65504 65504 65504 65504 65504 65504 65504 65504 65504 65504 65504 65504 65504 65504 65504 65504 65504 65504 65504 65504 65504 65504 65504 65504 65504 65504 65504 65504 65504 65504 65504 65504 65504 65504 65504 65504 65504 65504 65504 65504 65504 65504 65504 65504 65504 65504 65504 65504 65504 65504 65504 65504 65504 65504 65504 65504 65504 65504 65504 65504 65504 65504 65504 65504 65504 65504 65504 65504 65504 65504 65504 65504 65504 65504 65504 65504 65504 65504 65504 65504 65504 65504 65504 65504 65504 65504 65504 65504 65504 65504 65504 65504 65504 65504 65504 65504 65504 65504 65504 65504 65504
25.0469 25 24.9531 24.9219 24.875 24.8281 24.7969 24.75 24.7188 24.6719 24.6406 24.5938 24.5469 24.5156 24.4688 24.4375 24.4063 24.3594 24.3281 24.2813 24.25 24.2031 24.1719 24.1406 24.0938 24.0625 24.0313 23.9844 23.9531 23.9219 23.8906 23.8438 23.8125 23.7813 23.75 23.7188 23.6719 23.6406 23.6094 23.5781 23.5469 23.5156 23.4844 23.4531 23.4063 23.375 23.3438 23.3125 23.2813 23.25 23.2188 23.1875 23.1719 23.1406 23.1094 23.0781 23.0469 23.0156 22.9844 22.9531 22.9375 22.9063 22.875 22.8438 22.8125 22.7969 22.7656 22.7344 22.7031 22.6875 22.6563 22.625 22.6094 22.5781 22.5469 22.5313 22.5 22.4844 22.4531 22.4375 22.4063 22.375 22.3594 22.3281 22.3125 22.2969 22.2656 22.25 22.2188 22.2031 22.1719 22.1563 22.1406 22.1094 22.0938 22.0781 22.0469 22.0313 22.0156 22 21.9688 21.9531 21.9375 21.9219 21.8906 21.875 21.8594 21.8438 21.8281 21.8125 21.7969 21.7813 21.75 21.7344 21.7188 21.7031 21.6875 21.6719 21.6563 21.6406 21.625 21.6094 21.6094 21.5938 21.5781 21.5625 21.5469 21.5313 21.5156 21.5 21.5 21.4844 21.4688 21.4531 21.4375 21.4375 21.4219 21.4063 21.4063 21.3906 21.375 21.375 21.3594 21.3438 21.3438 21.3281 21.3125 21.3125 21.2969 21.2969 21.2813 21.2813 21.2656 21.2656 21.25 21.25 21.2344 21.2344 21.2188 21.2188 21.2188 21.2031 21.2031 21.1875 21.1875 21.1875 21.1719 21.1719 21.1719 21.1563 21.1563 21.1563 21.1563 21.1406 21.1406 21.1406 21.1406 21.1406 21.125 21.125 21.125 21.125 21.125 21.125 21.125 21.125 21.125 21.125 21.1094 21.1094 21.1094 21.1094 21.1094 21.1094 21.1094 21.125 21.125 21.125 21.125 21.125 21.125 21.125 21.125 21.125 21.125 21.1406 21.1406 21.1406 21.1406 21.1406 21.1563 21.1563 21.1563 21.1563 21.1719 21.1719 21.1719 21.1875 21.1875 21.1875 21.1875 21.2031 21.2031 21.2188 21.2188 21.2188 21.2344 21.2344 21.25 21.25 21.25 21.2656 21.2656 21.2813 21.2813 21.2969 21.2969 21.3125 21.3125 21.3281 21.3438 21.3438 65504 65504 65504 65504 65504 65504 65504 65504 65504 65504 65504 65504 65504 65504 65504 65504 65504 65504 65504 65504 65504 65504 65504 65504 65504 65504 65504 65504 65504 65504 65504 65504 65504 65504 65504 65504 65504 65504 65504 65504 65504 65504 65504 65504 65504 65504 65504 65504 65504 65504 65504 65504 65504 65504 65504 65504 65504 65504 65504 65504 65504 65504 65504 65504 65504 65504 65504 65504 65504 65504 65504 65504 65504 65504 65504 65504 65504 65504 65504 65504 65504 65504 65504 65504 65504 65504 65504 65504 65504 65504 65504 65504 65504 65504 65504 65504 65504 65504 65504 65504 65504 65504 65504 65504 65504 65504 65504 65504 65504 65504 65504 65504 65504 65504 65504 65504 65504 65504 65504 65504 65504 65504 65504 65504 65504 65504 65504 65504 65504 65504 65504 65504 65504 65504 65504 65504 65504 65504 65504 65504 65504 65504 65504 65504 65504 65504 65504 65504 65504 65504 65504 65504 65504 65504 65504 65504 65504 65504 65504 65504 65504 65504 65504 65504 65504 65504 65504 65504 65504 65504 65504 65504 65504 65504 65504 65504 65504 65504 65504 65504 65504 65504 65504 65504 65504 65504 65504 65504 65504 65504 65504 65504 65504 65504 65504 65504 65504 65504
25.0469 25.0156 24.9688 24.9219 24.8906 24.8438 24.8125 24.7656 24.7188 24.6875 24.6406 24.6094 24.5625 24.5313 24.4844 24.4531 24.4063 24.375 24.3438 24.2969 24.2656 24.2188 24.1875 24.1563 24.1094 24.0781 24.0469 24 23.9688 23.9375 23.8906 23.8594 23.8281 23.7969 23.7656 23.7188 23.6875 23.6563 23.625 23.5938 23.5625 23.5313 23.4844 23.4531 23.4219 23.3906 23.3594 23.3281 23.2969 23.2656 23.2344 23.2031 23.1719 23.1406 23.125 23.0938 23.0625 23.0313 23 22.9688 22.9375 22.9219 22.8906 22.8594 22.8281 22.7969 22.7813 22.75 22.7188 22.7031 22.6719 22.6406 22.625 22.5938 22.5625 22.5469 22.5156 22.4844 22.4688 22.4375 22.4219 22.3906 22.375 22.3438 22.3281 22.2969 22.2813 22.25 22.2344 22.2188 22.1875 22.1719 22.1563 22.125 22.1094 22.0938 22.0625 22.0469 22.0313 22 21.9844 21.9688 21.9531 21.9219 21.9063 21.8906 21.875 21.8594 21.8438 21.8281 21.7969 21.7813 21.7656 21.75 21.7344 21.7188 21.7031 21.6875 21.6719 21.6563 21.6406 21.625 21.6094 21.5938 21.5938 21.5781 21.5625 21.5469 21.5313 21.5156 21.5 21.5 21.4844 21.4688 21.4531 21.4531 21.4375 21.4219 21.4063 21.4063 21.3906 21.375 21.375 21.3594 21.3438 21.3438 21.3281 21.3281 21.3125 21.2969 21.2969 21.2813 21.2813 21.2656 21.2656 21.25 21.25 21.25 21.2344 21.2344 21.2188 21.2188 21.2188 21.2031 21.2031 21.1875 21.1875 21.1875 21.1875 21.1719 21.1719 21.1719 21.1563 21.1563 21.1563 21.1563 21.1563 21.1406 21.1406 21.1406 21.1406 21.1406 21.1406 21.1406 21.125 21.125 21.125 21.125 21.125 21.125 21.125 21.125 21.125 21.125 21.125 21.125 21.125 21.125 21.125 21.1406 21.1406 21.1406 21.1406 21.1406 21.1406 21.1406 21.1563 21.1563 21.1563 21.1563 21.1563 21.1719 21.1719 21.1719 21.1719 21.1875 21.1875 21.1875 21.2031 21.2031 21.2031 21.2188 21.2188 21.2188 21.2344 21.2344 21.2344 21.25 21.25 21.2656 21.2656 21.2813 21.2813 21.2969 21.2969 21.3125 21.3125 21.3281 21.3281 21.3438 21.3438 21.3594 65504 65504 65504 65504 65504 65504 65504 65504 65504 65504 65504 65504 65504 65504 65504 65504 65504 65504 65504 65504 65504 65504 65504 65504 65504 65504 65504 65504 65504 65504 65504 65504 65504 65504 65504 65504 65504 65504 65504 65504 65504 65504 65504 65504 65504 65504 65504 65504 65504 65504 65504 65504 65504 65504 65504 65504 65504 65504 65504 65504 65504 65504 65504 65504 65504 65504 65504 65504 65504 65504 65504 65504 65504 65504 65504 65504 65504 65504 65504 65504 65504 65504 65504 65504 65504 65504 65504 65504 65504 65504 65504 65504 65504 65504 65504 65504 65504 65504 65504 65504 65504 65504 65504 65504 65504 65504 65504 65504 65504 65504 65504 65504 65504 65504 65504 65504 65504 65504 65504 65504 65504 65504 65504 65504 65504 65504 65504 65504 65504 65504 65504 65504 65504 65504 65504 65504 65504 65504 65504 65504 65504 65504 65504 65504 65504 65504 65504 65504 65504 65504 65504 65504 65504 65504 65504 65504 65504 65504 65504 65504 65504 65504 65504 65504 65504 65504 65504 65504 65504 65504 65504 65504 65504 65504 65504 65504 65504 65504 65504 65504 65504 65504 65504 65504 65504 65504 65504 65504 65504 65504 65504 65504 65504 65504 65504 65504 65504 65504
25.0625 25.0313 24.9844 24.9375 24.9063 24.8594 24.8125 24.7813 24.7344 24.7031 24.6563 24.625 24.5781 24.5469 24.5 24.4688 24.4219 24.3906 24.3438 24.3125 24.2813 24.2344 24.2031 24.1563 24.125 24.0938 24.0469 24.0156 23.9844 23.9531 23.9063 23.875 23.8438 23.8125 23.7656 23.7344 23.7031 23.6719 23.6406 23.6094 23.5625 23.5313 23.5 23.4688 23.4375 23.4063 23.375 23.3438 23.3125 23.2813 23.25 23.2188 23.1875 23.1563 23.125 23.0938 23.0781 23.0469 23.0156 22.9844 22.9531 22.9219 22.9063 22.875 22.8438 22.8125 22.7969 22.7656 22.7344 22.7031 22.6875 22.6563 22.625 22.6094 22.5781 22.5469 22.5313 22.5 22.4844 22.4531 22.4375 22.4063 22.3906 22.3594 22.3438 22.3125 22.2969 22.2656 22.25 22.2188 22.2031 22.1875 22.1563 22.1406 22.125 22.0938 22.0781 22.0625 22.0313 22.0156 22 21.9844 21.9688 21.9375 21.9219 21.9063 21.8906 21.875 21.8438 21.8281 21.8125 21.7969 21.7813 21.7656 21.75 21.7344 21.7188 21.7031 21.6875 21.6719 21.6563 21.6406 21.625 21.6094 21.5938 21.5781 21.5781 21.5625 21.5469 21.5313 21.5156 21.5 21.5 21.4844 21.4688 21.4531 21.4531 21.4375 21.4219 21.4063 21.4063 21.3906 21.375 21.375 21.3594 21.3594 21.3438 21.3281 21.3281 21.3125 21.3125 21.2969 21.2969 21.2813 21.2813 21.2656 21.2656 21.25 21.25 21.2344 21.2344 21.2344 21.2188 21.2188 21.2188 21.2031 21.2031 21.2031 21.1875 21.1875 21.1875 21.1719 21.1719 21.1719 21.1719 21.1719 21.1563 21.1563 21.1563 21.1563 21.1563 21.1563 21.1406 21.1406 21.1406 21.1406 21.1406 21.1406 21.1406 21.1406 21.1406 21.1406 21.1406 21.1406 21.1406 21.1406 21.1406 21.1406 21.1406 21.1406 21.1406 21.1563 21.1563 21.1563 21.1563 21.1563 21.1563 21.1719 21.1719 21.1719 21.1719 21.1719 21.1875 21.1875 21.1875 21.1875 21.2031 21.2031 21.2031 21.2188 21.2188 21.2188 21.2344 21.2344 21.2344 21.25 21.25 21.2656 21.2656 21.2813 21.2813 21.2813 21.2969 21.2969 21.3125 21.3125 21.3281 21.3281 21.3438 21.3438 21.3594 21.375 65504 65504 65504 65504 65504 65504 65504 65504 65504 65504 65504 65504 65504 65504 65504 65504 65504 65504 65504 65504 65504 65504 65504 65504 65504 65504 65504 65504 65504 65504 65504 65504 65504 65504 65504 65504 65504 65504 65504 65504 65504 65504 65504 65504 65504 65504 65504 65504 65504 65504 65504 65504 65504 65504 65504 65504 65504 65504 65504 65504 65504 65504 65504 65504 65504 65504 65504 65504 65504 65504 65504 65504 65504 65504 65504 65504 65504 65504 65504 65504 65504 65504 65504 65504 65504 65504 65504 65504 65504 65504 65504 65504 65504 65504 65504 65504 65504 65504 65504 65504 65504 65504 65504 65504 65504 65504 65504 65504 65504 65504 65504 65504 65504 65504 65504 65504 65504 65504 65504 65504 65504 65504 65504 65504 65504 65504 65504 65504 65504 65504 65504 65504 65504 65504 65504 65504 65504 65504 65504 65504 65504 65504 65504 65504 65504 65504 65504 65504 65504 65504 65504 65504 65504 65504 65504 65504 65504 65504 65504 65504 65504 65504 65504 65504 65504 65504 65504 65504 65504 65504 65504 65504 65504 65504 65504 65504 65504 65504 65504 65504 65504 65504 65504 65504 65504 65504 65504 65504 65504 65504 65504 65504 65504 65504 65504 65504 65504 65504
25.0781 25.0469 25 24.9531 24.9219 24.875 24.8281 24.7969 24.75 24.7188 24.6719 24.6406 24.5938 24.5625 24.5156 24.4844 24.4375 24.4063 24.3594 24.3281 24.2813 24.25 24.2188 24.1719 24.1406 24.1094 24.0625 24.0313 24 23.9531 23.9219 23.8906 23.8594 23.8125 23.7813 23.75 23.7188 23.6875 23.6563 23.6094 23.5781 23.5469 23.5156 23.4844 23.4531 23.4219 23.3906 23.3594 23.3281 23.2969 23.2656 23.2344 23.2031 23.1719 23.1406 23.1094 23.0781 23.0625 23.0313 23 22.9688 22.9375 22.9063 22.8906 22.8594 22.8281 22.7969 22.7813 22.75 22.7188 22.7031 22.6719 22.6406 22.625 22.5938 22.5625 22.5469 22.5156 22.5 22.4688 22.4375 22.4219 22.3906 22.375 22.3438 22.3281 22.3125 22.2813 22.2656 22.2344 22.2188 22.2031 22.1719 22.1563 22.125 22.1094 22.0938 22.0781 22.0469 22.0313 22.0156 22 21.9688 21.9531 21.9375 21.9219 21.9063 21.875 21.8594 21.8438 21.8281 21.8125 21.7969 21.7813 21.7656 21.75 21.7344 21.7188 21.7031 21.6875 21.6719 21.6563 21.6406 21.625 21.6094 21.5938 21.5781 21.5781 21.5625 21.5469 21.5313 21.5156 21.5 21.5 21.4844 21.4688 21.4531 21.4531 21.4375 21.4219 21.4219 21.4063 21.3906 21.3906 21.375 21.3594 21.3594 21.3438 21.3438 21.3281 21.3281 21.3125 21.3125 21.2969 21.2969 21.2813 21.2813 21.2656 21.2656 21.25 21.25 21.2344 21.2344 21.2344 21.2188 21.2188 21.2188 21.2031 21.2031 21.2031 21.2031 21.1875 21.1875 21.1875 21.1875 21.1719 21.1719 21.1719 21.1719 21.1719 21.1719 21.1563 21.1563 21.1563 21.1563 21.1563 21.1563 21.1563 21.1563 21.1563 21.1563 21.1563 21.1563 21.1563 21.1563 21.1563 21.1563 21.1563 21.1563 21.1563 21.1563 21.1563 21.1563 21.1719 21.1719 21.1719 21.1719 21.1719 21.1719 21.1875 21.1875 21.1875 21.1875 21.2031 21.2031 21.2031 21.2031 21.2188 21.2188 21.2188 21.2344 21.2344 21.2344 21.25 21.25 21.2656 21.2656 21.2656 21.2813 21.2813 21.2969 21.2969 21.3125 21.3125 21.3281 21.3281 21.3438 21.3438 21.3594 21.3594 21.375 21.375 65504 65504 65504 65504 65504 65504 65504 65504 65504 65504 65504 65504 65504 65504 65504 65504 65504 65504 65504 65504 65504 65504 65504 65504 65504 65504 65504 65504 65504 65504 65504 65504 65504 65504 65504 65504 65504 65504 65504 65504 65504 65504 65504 65504 65504 65504 65504 65504 65504 65504 65504 65504 65504 65504 65504 65504 65504 65504 65504 65504 65504 65504 65504 65504 65504 65504 65504 65504 65504 65504 65504 65504 65504 65504 65504 65504 65504 65504 65504 65504 65504 65504 65504 65504 65504 65504 65504 65504 65504 65504 65504 65504 65504 65504 65504 65504 65504 65504 65504 65504 65504 65504 65504 65504 65504 65504 65504 65504 65504 65504 65504 65504 65504 65504 65504 65504 65504 65504 65504 65504 65504 65504 65504 65504 65504 65504 65504 65504 65504 65504 65504 65504 65504 65504 65504 65504 65504 65504 65504 65504 65504 65504 65504 65504 65504 65504 65504 65504 65504 65504 65504 65504 65504 65504 65504 65504 65504 65504 65504 65504 65504 65504 65504 65504 65504 65504 65504 65504 65504 65504 65504 65504 65504 65504 65504 65504 65504 65504 65504 65504 65504 65504 65504 65504 65504 65504 65504 65504 65504 65504 65504 65504 65504 65504 65504 65504 65504 65504
25.0938 25.0469 25.0156 24.9688 24.9219 24.8906 24.8438 24.8125 24.7656 24.7344 24.6875 24.6406 24.6094 24.5625 24.5313 24.4844 24.4531 24.4219 24.375 24.3438 24.2969 24.2656 24.2344 24.1875 24.1563 24.1094 24.0781 24.0469 24.0156 23.9688 23.9375 23.9063 23.875 23.8281 23.7969 23.7656 23.7344 23.7031 23.6563 23.625 23.5938 23.5625 23.5313 23.5 23.4688 23.4375 23.4063 23.375 23.3438 23.3125 23.2813 23.25 23.2188 23.1875 23.1563 23.125 23.0938 23.0625 23.0469 23.0156 22.9844 22.9531 22.9219 22.8906 22.875 22.8438 22.8125 22.7813 22.7656 22.7344 22.7031 22.6875 22.6563 22.625 22.6094 22.5781 22.5625 22.5313 22.5 22.4844 22.4531 22.4375 22.4063 22.3906 22.3594 22.3438 22.3125 22.2969 22.2813 22.25 22.2344 22.2031 22.1875 22.1719 22.1406 22.125 22.1094 22.0781 22.0625 22.0469 22.0313 22 21.9844 21.9688 21.9531 21.9375 21.9063 21.8906 21.875 21.8594 21.8438 21.8281 21.8125 21.7969 21.7813 21.7656 21.75 21.7344 21.7188 21.7031 21.6875 21.6719 21.6563 21.6406 21.625 21.6094 21.5938 21.5781 21.5781 21.5625 21.5469 21.5313 21.5156 21.5 21.5 21.4844 21.4688 21.4688 21.4531 21.4375 21.4219 21.4219 21.4063 21.3906 21.3906 21.375 21.375 21.3594 21.3438 21.3438 21.3281 21.3281 21.3125 21.3125 21.2969 21.2969 21.2813 21.2813 21.2813 21.2656 21.2656 21.25 21.25 21.25 21.2344 21.2344 21.2344 21.2188 21.2188 21.2188 21.2031 21.2031 21.2031 21.2031 21.1875 21.1875 21.1875 21.1875 21.1875 21.1719 21.1719 21.1719 21.1719 21.1719 21.1719 21.1719 21.1719 21.1719 21.1719 21.1719 21.1719 21.1719 21.1719 21.1719 21.1719 21.1719 21.1719 21.1719 21.1719 21.1719 21.1719 21.1719 21.1719 21.1719 21.1875 21.1875 21.1875 21.1875 21.1875 21.1875 21.2031 21.2031 21.2031 21.2031 21.2188 21.2188 21.2188 21.2344 21.2344 21.2344 21.25 21.25 21.25 21.2656 21.2656 21.2656 21.2813 21.2813 21.2969 21.2969 21.2969 21.3125 21.3125 21.3281 21.3281 21.3438 21.3438 21.3594 21.3594 21.375 21.3906 21.3906 65504 65504 65504 65504 65504 65504 65504 65504 65504 65504 65504 65504 65504 65504 65504 65504 65504 65504 65504 65504 65504 65504 65504 65504 65504 65504 65504 65504 65504 65504 65504 65504 65504 65504 65504 65504 65504 65504 65504 65504 65504 65504 65504 65504 65504 65504 65504 65504 65504 65504 65504 65504 65504 65504 65504 65504 65504 65504 65504 65504 65504 65504 65504 65504 65504 65504 65504 65504 65504 65504 65504 65504 65504 65504 65504 65504 65504 65504 65504 65504 65504 65504 65504 65504 65504 65504 65504 65504 65504 65504 65504 65504 65504 65504 65504 65504 65504 65504 65504 65504 65504 65504 65504 65504 65504 65504 65504 65504 65504 65504 65504 65504 65504 65504 65504 65504 65504 65504 65504 65504 65504 65504 65504 65504 65504 65504 65504 65504 65504 65504 65504 65504 65504 65504 65504 65504 65504 65504 65504 65504 65504 65504 65504 65504 65504 65504 65504 65504 65504 65504 65504 65504 65504 65504 65504 65504 65504 65504 65504 65504 65504 65504 65504 65504 65504 65504 65504 65504 65504 65504 65504 65504 65504 65504 65504 65504 65504 65504 65504 65504 65504 65504 65504 65504 65504 65504 65504 65504 65504 65504 65504 65504 65504 65504 65504 65504 65504 65504
25.1094 25.0625 25.0313 24.9844 24.9375 24.9063 24.8594 24.8281 24.7813 24.7344 24.7031 24.6563 24.625 24.5781 24.5469 24.5 24.4688 24.4219 24.3906 24.3594 24.3125 24.2813 24.2344 24.2031 24.1719 24.125 24.0938 24.0625 24.0156 23.9844 23.9531 23.9219 23.875 23.8438 23.8125 23.7813 23.75 23.7188 23.6719 23.6406 23.6094 23.5781 23.5469 23.5156 23.4844 23.4531 23.4219 23.3906 23.3594 23.3281 23.2969 23.2656 23.2344 23.2031 23.1719 23.1406 23.1094 23.0781 23.0469 23.0313 23 22.9688 22.9375 22.9063 22.8906 22.8594 22.8281 22.7969 22.7813 22.75 22.7188 22.7031 22.6719 22.6406 22.625 22.5938 22.5625 22.5469 22.5156 22.5 22.4688 22.4531 22.4219 22.4063 22.375 22.3594 22.3281 22.3125 22.2813 22.2656 22.25 22.2188 22.2031 22.1875 22.1563 22.1406 22.125 22.0938 22.0781 22.0625 22.0313 22.0156 22 21.9844 21.9688 21.9375 21.9219 21.9063 21.8906 21.875 21.8594 21.8438 21.8281 21.8125 21.7969 21.7656 21.75 21.7344 21.7188 21.7031 21.7031 21.6875 21.6719 21.6563 21.6406 21.625 21.6094 21.5938 21.5781 21.5781 21.5625 21.5469 21.5313 21.5156 21.5156 21.5 21.4844 21.4688 21.4688 21.4531 21.4375 21.4375 21.4219 21.4063 21.4063 21.3906 21.375 21.375 21.3594 21.3594 21.3438 21.3438 21.3281 21.3281 21.3125 21.3125 21.2969 21.2969 21.2813 21.2813 21.2813 21.2656 21.2656 21.25 21.25 21.25 21.2344 21.2344 21.2344 21.2188 21.2188 21.2188 21.2188 21.2031 21.2031 21.2031 21.2031 21.2031 21.1875 21.1875 21.1875 21.1875 21.1875 21.1875 21.1875 21.1875 21.1875 21.1719 21.1719 21.1719 21.1719 21.1719 21.1719 21.1719 21.1719 21.1719 21.1719 21.1875 21.1875 21.1875 21.1875 21.1875 21.1875 21.1875 21.1875 21.2031 21.2031 21.2031 21.2031 21.2031 21.2031 21.2188 21.2188 21.2188 21.2188 21.2344 21.2344 21.2344 21.25 21.25 21.25 21.2656 21.2656 21.2656 21.2813 21.2813 21.2969 21.2969 21.2969 21.3125 21.3125 21.3281 21.3281 21.3438 21.3438 21.3594 21.3594 21.375 21.375 21.3906 21.3906 21.4063 65504 65504 65504 65504 65504 65504 65504 65504 65504 65504 65504 65504 65504 65504 65504 65504 65504 65504 65504 65504 65504 65504 65504 65504 65504 65504 65504 65504 65504 65504 65504 65504 65504 65504 65504 65504 65504 65504 65504 65504 65504 65504 65504 65504 65504 65504 65504 65504 65504 65504 65504 65504 65504 65504 65504 65504 65504 65504 65504 65504 65504 65504 65504 65504 65504 65504 65504 65504 65504 65504 65504 65504 65504 65504 65504 65504 65504 65504 65504 65504 65504 65504 65504 65504 65504 65504 65504 65504 65504 65504 65504 65504 65504 65504 65504 65504 65504 65504 65504 65504 65504 65504 65504 65504 65504 65504 65504 65504 65504 65504 65504 65504 65504 65504 65504 65504 65504 65504 65504 65504 65504 65504 65504 65504 65504 65504 65504 65504 65504 65504 65504 65504 65504 65504 65504 65504 65504 65504 65504 65504 65504 65504 65504 65504 65504 65504 65504 65504 65504 65504 65504 65504 65504 65504 65504 65504 65504 65504 65504 65504 65504 65504 65504 65504 65504 65504 65504 65504 65504 65504 65504 65504 65504 65504 65504 65504 65504 65504 65504 65504 65504 65504 65504 65504 65504 65504 65504 65504 65504 65504 65504 65504 65504 65504 65504 65504 65504 65504
25.125 25.0781 25.0469 25 24.9531 24.9219 24.875 24.8281 24.7969 24.75 24.7188 24.6719 24.6406 24.5938 24.5625 24.5156 24.4844 24.4375 24.4063 24.375 24.3281 24.2969 24.25 24.2188 24.1875 24.1406 24.1094 24.0781 24.0313 24 23.9688 23.9375 23.8906 23.8594 23.8281 23.7969 23.7656 23.7188 23.6875 23.6563 23.625 23.5938 23.5625 23.5313 23.5 23.4688 23.4375 23.4063 23.375 23.3438 23.3125 23.2813 23.25 23.2188 23.1875 23.1563 23.125 23.0938 23.0625 23.0313 23.0156 22.9844 22.9531 22.9219 22.8906 22.875 22.8438 22.8125 22.7969 22.7656 22.7344 22.7031 22.6875 22.6563 22.6406 22.6094 22.5781 22.5625 22.5313 22.5156 22.4844 22.4688 22.4375 22.4219 22.3906 22.375 22.3438 22.3281 22.2969 22.2813 22.2656 22.2344 22.2188 22.1875 22.1719 22.1563 22.125 22.1094 22.0938 22.0781 22.0469 22.0313 22.0156 22 21.9844 21.9531 21.9375 21.9219 21.9063 21.8906 21.875 21.8594 21.8281 21.8125 21.7969 21.7813 21.7656 21.75 21.7344 21.7188 21.7031 21.6875 21.6875 21.6719 21.6563 21.6406 21.625 21.6094 21.5938 21.5781 21.5781 21.5625 21.5469 21.5313 21.5156 21.5156 21.5 21.4844 21.4688 21.4688 21.4531 21.4375 21.4375 21.4219 21.4219 21.4063 21.3906 21.3906 21.375 21.375 21.3594 21.3594 21.3438 21.3438 21.3281 21.3281 21.3125 21.3125 21.2969 21.2969 21.2813 21.2813 21.2813 21.2656 21.2656 21.2656 21.25 21.25 21.25 21.2344 21.2344 21.2344 21.2188 21.2188 21.2188 21.2188 21.2188 21.2031 21.2031 21.2031 21.2031 21.2031 21.2031 21.2031 21.1875 21.1875 21.1875 21.1875 21.1875 21.1875 21.1875 21.1875 21.1875 21.1875 21.1875 21.1875 21.1875 21.1875 21.1875 21.2031 21.2031 21.2031 21.2031 21.2031 21.2031 21.2031 21.2031 21.2188 21.2188 21.2188 21.2188 21.2344 21.2344 21.2344 21.2344 21.25 21.25 21.25 21.25 21.2656 21.2656 21.2656 21.2813 21.2813 21.2969 21.2969 21.2969 21.3125 21.3125 21.3281 21.3281 21.3438 21.3438 21.3438 21.3594 21.3594 21.375 21.375 21.3906 21.4063 21.4063 21.4219 65504 65504 65504 65504 65504 65504 65504 65504 65504 65504 65504 65504 65504 65504 65504 65504 65504 65504 65504 65504 65504 65504 65504 65504 65504 65504 65504 65504 65504 65504 65504 65504 65504 65504 65504 65504 65504 65504 65504 65504 65504 65504 65504 65504 65504 65504 65504 65504 65504 65504 65504 65504 65504 65504 65504 65504 65504 65504 65504 65504 65504 65504 65504 65504 65504 65504 65504 65504 65504 65504 65504 65504 65504 65504 65504 65504 65504 65504 65504 65504 65504 65504 65504 65504 65504 65504 65504 65504 65504 65504 65504 65504 65504 65504 65504 65504 65504 65504 65504 65504 65504 65504 65504 65504 65504 65504 65504 65504 65504 65504 65504 65504 65504 65504 65504 65504 65504 65504 65504 65504 65504 65504 65504 65504 65504 65504 65504 65504 65504 65504 65504 65504 65504 65504 65504 65504 65504 65504 65504 65504 65504 65504 65504 65504 65504 65504 65504 65504 65504 65504 65504 65504 65504 65504 65504 65504 65504 65504 65504 65504 65504 65504 65504 65504 65504 65504 65504 65504 65504 65504 65504 65504 65504 65504 65504 65504 65504 65504 65504 65504 65504 65504 65504 65504 65504 65504 65504 65504 65504 65504 65504 65504 65504 65504 65504 65504 65504 65504
25.1406 25.0938 25.0469 25.0156 24.9688 24.9375 24.8906 24.8438 24.8125 24.7656 24.7344 24.6875 24.6563 24.6094 24.5781 24.5313 24.5 24.4531 24.4219 24.375 24.3438 24.3125 24.2656 24.2344 24.2031 24.1563 24.125 24.0938 24.0469 24.0156 23.9844 23.9531 23.9063 23.875 23.8438 23.8125 23.7656 23.7344 23.7031 23.6719 23.6406 23.6094 23.5781 23.5469 23.5156 23.4844 23.4531 23.4063 23.375 23.3594 23.3281 23.2969 23.2656 23.2344 23.2031 23.1719 23.1406 23.1094 23.0781 23.0469 23.0313 23 22.9688 22.9375 22.9063 22.8906 22.8594 22.8281 22.7969 22.7813 22.75 22.7188 22.7031 22.6719 22.6406 22.625 22.5938 22.5781 22.5469 22.5313 22.5 22.4688 22.4531 22.4219 22.4063 22.3906 22.3594 22.3438 22.3125 22.2969 22.2656 22.25 22.2344 22.2031 22.1875 22.1719 22.1406 22.125 22.1094 22.0938 22.0625 22.0469 22.0313 22.0156 21.9844 21.9688 21.9531 21.9375 21.9219 21.9063 21.8906 21.8594 21.8438 21.8281 21.8125 21.7969 21.7813 21.7656 21.75 21.7344 21.7188 21.7031 21.6875 21.6719 21.6719 21.6563 21.6406 21.625 21.6094 21.5938 21.5781 21.5781 21.5625 21.5469 21.5313 21.5313 21.5156 21.5 21.4844 21.4844 21.4688 21.4531 21.4531 21.4375 21.4219 21.4219 21.4063 21.4063 21.3906 21.375 21.375 21.3594 21.3594 21.3438 21.3438 21.3281 21.3281 21.3125 21.3125 21.3125 21.2969 21.2969 21.2813 21.2813 21.2813 21.2656 21.2656 21.2656 21.25 21.25 21.25 21.25 21.2344 21.2344 21.2344 21.2344 21.2188 21.2188 21.2188 21.2188 21.2188 21.2188 21.2188 21.2031 21.2031 21.2031 21.2031 21.2031 21.2031 21.2031 21.2031 21.2031 21.2031 21.2031 21.2031 21.2031 21.2031 21.2031 21.2031 21.2031 21.2031 21.2188 21.2188 21.2188 21.2188 21.2188 21.2188 21.2188 21.2344 21.2344 21.2344 21.2344 21.25 21.25 21.25 21.25 21.2656 21.2656 21.2656 21.2813 21.2813 21.2813 21.2969 21.2969 21.2969 21.3125 21.3125 21.3281 21.3281 21.3281 21.3438 21.3438 21.3594 21.3594 21.375 21.375 21.3906 21.3906 21.4063 21.4063 21.4219 21.4219 65504 65504 65504 65504 65504 65504 65504 65504 65504 65504 65504 65504 65504 65504 65504 65504 65504 65504 65504 65504 65504 65504 65504 65504 65504 65504 65504 65504 65504 65504 65504 65504 65504 65504 65504 65504 65504 65504 65504 65504 65504 65504 65504 65504 65504 65504 65504 65504 65504 65504 65504 65504 65504 65504 65504 65504 65504 65504 65504 65504 65504 65504 65504 65504 65504 65504 65504 65504 65504 65504 65504 65504 65504 65504 65504 65504 65504 65504 65504 65504 65504 65504 65504 65504 65504 65504 65504 65504 65504 65504 65504 65504 65504 65504 65504 65504 65504 65504 65504 65504 65504 65504 65504 65504 65504 65504 65504 65504 65504 65504 65504 65504 65504 65504 65504 65504 65504 65504 65504 65504 65504 65504 65504 65504 65504 65504 65504 65504 65504 65504 65504 65504 65504 65504 65504 65504 65504 65504 65504 65504 65504 65504 65504 65504 65504 65504 65504 65504 65504 65504 65504 65504 65504 65504 65504 65504 65504 65504 65504 65504 65504 65504 65504 65504 65504 65504 65504 65504 65504 65504 65504 65504 65504 65504 65504 65504 65504 65504 65504 65504 65504 65504 65504 65504 65504 65504 65504 65504 65504 65504 65504 65504 65504 65504 65504 65504 65504 65504
25.1563 25.1094 25.0625 25.0313 24.9844 24.9531 24.9063 24.8594 24.8281 24.7813 24.75 24.7031 24.6719 24.625 24.5938 24.5469 24.5156 24.4688 24.4375 24.3906 24.3594 24.3281 24.2813 24.25 24.2188 24.1719 24.1406 24.1094 24.0625 24.0313 24 23.9531 23.9219 23.8906 23.8594 23.8281 23.7813 23.75 23.7188 23.6875 23.6563 23.625 23.5938 23.5625 23.5313 23.4844 23.4531 23.4219 23.3906 23.3594 23.3281 23.2969 23.2813 23.25 23.2188 23.1875 23.1563 23.125 23.0938 23.0625 23.0313 23.0156 22.9844 22.9531 22.9219 22.9063 22.875 22.8438 22.8125 22.7969 22.7656 22.7344 22.7188 22.6875 22.6563 22.6406 22.6094 22.5938 22.5625 22.5313 22.5156 22.4844 22.4688 22.4375 22.4219 22.3906 22.375 22.3594 22.3281 22.3125 22.2813 22.2656 22.25 22.2188 22.2031 22.1875 22.1563 22.1406 22.125 22.0938 22.0781 22.0625 22.0469 22.0156 22 21.9844 21.9688 21.9531 21.9375 21.9219 21.8906 21.875 21.8594 21.8438 21.8281 21.8125 21.7969 21.7813 21.7656 21.75 21.7344 21.7188 21.7031 21.6875 21.6719 21.6719 21.6563 21.6406 21.625 21.6094 21.5938 21.5938 21.5781 21.5625 21.5469 21.5313 21.5313 21.5156 21.5 21.5 21.4844 21.4688 21.4688 21.4531 21.4375 21.4375 21.4219 21.4063 21.4063 21.3906 21.3906 21.375 21.375 21.3594 21.3594 21.3438 21.3438 21.3281 21.3281 21.3125 21.3125 21.3125 21.2969 21.2969 21.2969 21.2813 21.2813 21.2813 21.2656 21.2656 21.2656 21.25 21.25 21.25 21.25 21.25 21.2344 21.2344 21.2344 21.2344 21.2344 21.2344 21.2188 21.2188 21.2188 21.2188 21.2188 21.2188 21.2188 21.2188 21.2188 21.2188 21.2188 21.2188 21.2188 21.2188 21.2188 21.2188 21.2188 21.2188 21.2188 21.2188 21.2344 21.2344 21.2344 21.2344 21.2344 21.2344 21.25 21.25 21.25 21.25 21.25 21.2656 21.2656 21.2656 21.2656 21.2813 21.2813 21.2813 21.2969 21.2969 21.2969 21.3125 21.3125 21.3281 21.3281 21.3281 21.3438 21.3438 21.3594 21.3594 21.375 21.375 21.3906 21.3906 21.4063 21.4063 21.4219 21.4219 21.4375 21.4375 65504 65504 65504 65504 65504 65504 65504 65504 65504 65504 65504 65504 65504 65504 65504 65504 65504 65504 65504 65504 65504 65504 65504 65504 65504 65504 65504 65504 65504 65504 65504 65504 65504 65504 65504 65504 65504 65504 65504 65504 65504 65504 65504 65504 65504 65504 65504 65504 65504 65504 65504 65504 65504 65504 65504 65504 65504 65504 65504 65504 65504 65504 65504 65504 65504 65504 65504 65504 65504 65504 65504 65504 65504 65504 65504 65504 65504 65504 65504 65504 65504 65504 65504 65504 65504 65504 65504 65504 65504 65504 65504 65504 65504 65504 65504 65504 65504 65504 65504 65504 65504 65504 65504 65504 65504 65504 65504 65504 65504 65504 65504 65504 65504 65504 65504 65504 65504 65504 65504 65504 65504 65504 65504 65504 65504 65504 65504 65504 65504 65504 65504 65504 65504 65504 65504 65504 65504 65504 65504 65504 65504 65504 65504 65504 65504 65504 65504 65504 65504 65504 65504 65504 65504 65504 65504 65504 65504 65504 65504 65504 65504 65504 65504 65504 65504 65504 65504 65504 65504 65504 65504 65504 65504 65504 65504 65504 65504 65504 65504 65504 65504 65504 65504 65504 65504 65504 65504 65504 65504 65504 65504 65504 65504 65504 65504 65504 65504 65504
25.1719 25.125 25.0781 25.0469 25 24.9688 24.9219 24.875 24.8438 24.7969 24.7656 24.7188 24.6875 24.6406 24.6094 24.5625 24.5313 24.4844 24.4531 24.4063 24.375 24.3438 24.2969 24.2656 24.2188 24.1875 24.1563 24.1094 24.0781 24.0469 24.0156 23.9688 23.9375 23.9063 23.875 23.8438 23.7969 23.7656 23.7344 23.7031 23.6719 23.6406 23.6094 23.5781 23.5313 23.5 23.4688 23.4375 23.4063 23.375 23.3438 23.3125 23.2813 23.2656 23.2344 23.2031 23.1719 23.1406 23.1094 23.0781 23.0469 23.0313 23 22.9688 22.9375 22.9063 22.8906 22.8594 22.8281 22.8125 22.7813 22.75 22.7344 22.7031 22.6719 22.6563 22.625 22.6094 22.5781 22.5469 22.5313 22.5 22.4844 22.4531 22.4375 22.4063 22.3906 22.3594 22.3438 22.3281 22.2969 22.2813 22.25 22.2344 22.2188 22.1875 22.1719 22.1563 22.1406 22.1094 22.0938 22.0781 22.0625 22.0313 22.0156 22 21.9844 21.9688 21.9531 21.9219 21.9063 21.8906 21.875 21.8594 21.8438 21.8281 21.8125 21.7969 21.7813 21.7656 21.75 21.7344 21.7188 21.7031 21.6875 21.6719 21.6719 21.6563 21.6406 21.625 21.6094 21.5938 21.5938 21.5781 21.5625 21.5469 21.5469 21.5313 21.5156 21.5 21.5 21.4844 21.4688 21.4688 21.4531 21.4531 21.4375 21.4219 21.4219 21.4063 21.4063 21.3906 21.3906 21.375 21.375 21.3594 21.3594 21.3438 21.3438 21.3281 21.3281 21.3281 21.3125 21.3125 21.2969 21.2969 21.2969 21.2813 21.2813 21.2813 21.2813 21.2656 21.2656 21.2656 21.2656 21.25 21.25 21.25 21.25 21.25 21.25 21.2344 21.2344 21.2344 21.2344 21.2344 21.2344 21.2344 21.2344 21.2344 21.2344 21.2344 21.2344 21.2344 21.2344 21.2344 21.2344 21.2344 21.2344 21.2344 21.2344 21.2344 21.2344 21.25 21.25 21.25 21.25 21.25 21.25 21.2656 21.2656 21.2656 21.2656 21.2813 21.2813 21.2813 21.2813 21.2969 21.2969 21.2969 21.3125 21.3125 21.3125 21.3281 21.3281 21.3281 21.3438 21.3438 21.3594 21.3594 21.375 21.375 21.375 21.3906 21.3906 21.4063 21.4063 21.4219 21.4219 21.4375 21.4531 21.4531 65504 65504 65504 65504 65504 65504 65504 65504 65504 65504 65504 65504 65504 65504 65504 65504 65504 65504 65504 65504 65504 65504 65504 65504 65504 65504 65504 65504 65504 65504 65504 65504 65504 65504 65504 65504 65504 65504 65504 65504 65504 65504 65504 65504 65504 65504 65504 65504 65504 65504 65504 65504 65504 65504 65504 65504 65504 65504 65504 65504 65504 65504 65504 65504 65504 65504 65504 65504 65504 65504 65504 65504 65504 65504 65504 65504 65504 65504 65504 65504 65504 65504 65504 65504 65504 65504 65504 65504 65504 65504 65504 65504 65504 65504 65504 65504 65504 65504 65504 65504 65504 65504 65504 65504 65504 65504 65504 65504 65504 65504 65504 65504 65504 65504 65504 65504 65504 65504 65504 65504 65504 65504 65504 65504 65504 65504 65504 65504 65504 65504 65504 65504 65504 65504 65504 65504 65504 65504 65504 65504 65504 65504 65504 65504 65504 65504 65504 65504 65504 65504 65504 65504 65504 65504 65504 65504 65504 65504 65504 65504 65504 65504 65504 65504 65504 65504 65504 65504 65504 65504 65504 65504 65504 65504 65504 65504 65504 65504 65504 65504 65504 65504 65504 65504 65504 65504 65504 65504 65504 65504 65504 65504 65504 65504 65504 65504 65504 65504
