65504 65504 65504 65504 65504 65504 65504 65504 65504 65504 65504 65504 65504 65504 65504 65504 65504 65504 65504 65504 65504 65504 65504 65504 65504 65504 65504 65504 29.25 29.2188 29.1719 29.125 29.0781 29.0469 29 28.9531 28.9063 28.875 28.8281 28.7813 28.8125 28.875 28.8438 28.7969 28.75 28.7188 28.6719 28.625 28.5938 28.5469 28.5 28.4688 28.4219 28.375 28.3438 28.2969 28.0781 28.0469 28 27.9688 27.9219 27.8906 27.8438 27.8125 27.7656 27.8438 27.8594 27.8281 27.7813 27.75 27.7031 27.6719 27.6406 27.5938 27.5625 27.5156 27.4844 27.4531 27.4063 27.375 27.1719 27.125 27.0938 27.0625 27.0156 26.9844 26.9531 26.9063 26.875 26.8438 26.8125 26.8125 26.9063 26.875 26.8438 26.7969 26.7656 26.7344 26.7031 26.6719 26.625 26.5938 26.5625 26.5313 26.5 26.4688 26.4375 26.4063 26.375 26.3281 26.2969 26.2656 26.2344 26.2031 26.1719 26.1406 26.1094 26.0781 26.0469 26.0156 25.9844 25.9531 25.9375 25.9063 25.875 25.8438 25.8125 25.7813 25.75 25.7188 25.6875 25.6719 25.6406 25.6094 25.5781 25.5469 25.5313 25.5 25.4688 25.4375 25.4219 25.3906 25.3594 25.3281 25.3125 25.2813 25.25 25.2344 25.2031 25.0156 25 24.9688 24.9531 24.9219 24.8906 24.875 24.8438 24.8281 24.7969 24.7813 24.75 24.8594 24.8594 24.8438 24.8125 24.7969 24.7656 24.75 24.7344 24.7031 24.6875 24.6563 24.6406 24.625 24.5938 24.5781 24.5625 24.375 24.3594 24.3438 24.3281 24.2969 24.2813 24.2656 24.25 24.2188 24.3594 24.3438 24.3125 24.2969 24.2813 24.2656 24.25 24.2344 24.2188 24.1875 24.1719 24.1563 24.1406 24.125 24.1094 24.0938 23.9219 23.9063 23.8906 23.875 23.8594 23.8438 23.8438 23.8281 23.8125 23.7969 23.7813 23.7656 23.9063 23.8906 23.875 23.8594 23.8438 23.8281 23.8281 23.8125 23.7969 23.7813 23.7656 23.7656 23.75 23.7344 23.7344 23.7188 23.5625 23.5469 23.5313 23.5313 23.5156 23.5 23.5 23.4844 23.4844 23.4688 23.6094 23.5938 23.5938 23.5781 23.5781 23.5625 23.5625 23.5469 23.5469 23.5313 23.5313 23.5156 23.5156 23.5 23.5 23.5 23.3438 23.3438 23.3281 23.3281 23.3281 23.3125 23.3125 23.3125 23.2969 23.2969 23.2969 23.2969 23.2813 23.4219 23.4219 23.4219 23.4219 23.4219 23.4063 23.4063 23.4063 23.4063 23.4063 23.4063 23.4063 23.4063 23.4063 23.3906 23.3906 23.3906 23.3906 23.3906 23.3906 23.3906 23.3906 23.3906 23.3906 23.4063 23.4063 23.4063 23.4063 23.4063 23.4063 23.4063 23.4063 23.4063 23.4219 23.4219 23.4219 23.4219 23.4219 23.4219 23.4375 23.4375 23.4375 23.4375 23.4531 23.4531 23.4531 23.4688 23.4688 23.4688 23.4844 23.4844 23.4844 23.5 23.5 23.5 23.5156 23.5156 23.5313 23.5313 23.5313 23.5469 23.4844 23.4063 23.4219 23.4219 23.4375 23.4375 23.4531 23.4688 23.4688 23.4844 23.4844 23.5 23.5 23.6563 23.6719 23.6875 23.6875 23.7031 23.7188 23.7188 23.7344 23.75 23.75 23.7656 23.7813 23.7969 23.7969 23.8125 23.8281 23.8438 23.7031 23.7188 23.7188 23.7344 23.75 23.7656 23.7813 23.7813 23.7969 23.8125 23.8281 24 24 24.0156 24.0313 24.0469 24.0625 24.0781 24.0938 24.1094 24.125 24.1406 24.1563 24.1719 24.1875 24.2031 24.2188 24.2344 24.1094 24.1094 24.125 24.1563 24.1719 24.1875 24.2031 24.2188 24.2344 24.25 24.2656 24.2813 24.3125 24.3281 65504 65504 65504 65504 65504 65504 65504 65504 65504 65504 65504 65504 65504 65504 65504 65504 65504 65504 65504 65504 65504 65504 65504 65504 65504 65504 65504 65504 65504 65504 65504 65504 65504 65504
65504 65504 65504 65504 65504 65504 65504 65504 65504 65504 65504 65504 65504 65504 65504 65504 65504 65504 65504 65504 65504 65504 65504 65504 65504 65504 65504 65504 29.2344 29.1875 29.1563 29.1094 29.0625 29.0156 28.9844 28.9375 28.8906 28.8438 28.8125 28.7656 28.7813 28.8594 28.8125 28.7813 28.7344 28.6875 28.6563 28.6094 28.5625 28.5313 28.4844 28.4375 28.4063 28.3594 28.3125 28.2813 28.0625 28.0156 27.9844 27.9375 27.9063 27.8594 27.8281 27.7813 27.75 27.8281 27.8438 27.8125 27.7656 27.7344 27.6875 27.6563 27.6094 27.5781 27.5313 27.5 27.4688 27.4219 27.3906 27.3438 27.1406 27.1094 27.0625 27.0313 27 26.9688 26.9219 26.8906 26.8594 26.8281 26.7813 26.7969 26.8906 26.8438 26.8125 26.7813 26.75 26.7188 26.6719 26.6406 26.6094 26.5781 26.5469 26.5156 26.4688 26.4375 26.4063 26.375 26.3438 26.3125 26.2813 26.25 26.2188 26.1875 26.1563 26.125 26.0938 26.0625 26.0313 26 25.9688 25.9375 25.9063 25.875 25.8438 25.8125 25.7813 25.7656 25.7344 25.7031 25.6719 25.6406 25.6094 25.5938 25.5625 25.5313 25.5 25.4688 25.4531 25.4219 25.3906 25.3594 25.3438 25.3125 25.2813 25.2656 25.2344 25.2031 25.1875 25 24.9688 24.9531 24.9219 24.8906 24.875 24.8438 24.8281 24.7969 24.7813 24.75 24.7344 24.8281 24.8438 24.8125 24.7969 24.7656 24.75 24.7188 24.7031 24.6875 24.6563 24.6406 24.6094 24.5938 24.5781 24.5469 24.5313 24.3594 24.3438 24.3125 24.2969 24.2813 24.25 24.2344 24.2188 24.2031 24.3281 24.3125 24.2969 24.2813 24.2656 24.2344 24.2188 24.2031 24.1875 24.1719 24.1563 24.1406 24.125 24.1094 24.0938 24.0781 23.9063 23.8906 23.875 23.8594 23.8438 23.8281 23.8125 23.7969 23.7813 23.7656 23.75 23.7344 23.875 23.8594 23.8438 23.8281 23.8281 23.8125 23.7969 23.7813 23.7656 23.7656 23.75 23.7344 23.7188 23.7188 23.7031 23.6875 23.5313 23.5156 23.5156 23.5 23.4844 23.4844 23.4688 23.4688 23.4531 23.4375 23.5781 23.5781 23.5625 23.5625 23.5469 23.5469 23.5313 23.5313 23.5156 23.5156 23.5 23.5 23.4844 23.4844 23.4844 23.4688 23.3125 23.3125 23.3125 23.2969 23.2969 23.2969 23.2813 23.2813 23.2813 23.2656 23.2656 23.2656 23.2656 23.4063 23.4063 23.3906 23.3906 23.3906 23.3906 23.3906 23.3906 23.375 23.375 23.375 23.375 23.375 23.375 23.375 23.375 23.375 23.375 23.375 23.375 23.375 23.375 23.375 23.375 23.375 23.375 23.375 23.375 23.375 23.375 23.3906 23.3906 23.3906 23.3906 23.3906 23.3906 23.3906 23.4063 23.4063 23.4063 23.4063 23.4219 23.4219 23.4219 23.4219 23.4375 23.4375 23.4375 23.4531 23.4531 23.4531 23.4688 23.4688 23.4688 23.4844 23.4844 23.5 23.5 23.5156 23.5156 23.5156 23.4531 23.3906 23.3906 23.4063 23.4063 23.4219 23.4219 23.4375 23.4531 23.4531 23.4688 23.4688 23.4844 23.6406 23.6563 23.6563 23.6719 23.6719 23.6875 23.7031 23.7188 23.7188 23.7344 23.75 23.75 23.7656 23.7813 23.7969 23.7969 23.8125 23.6719 23.6875 23.7031 23.7188 23.7344 23.7344 23.75 23.7656 23.7813 23.7969 23.8125 23.9688 23.9844 24 24.0156 24.0313 24.0469 24.0625 24.0781 24.0938 24.1094 24.125 24.1406 24.1563 24.1719 24.1875 24.2031 24.2188 24.0781 24.0938 24.1094 24.125 24.1406 24.1563 24.1719 24.2031 24.2188 24.2344 24.25 24.2656 24.2813 24.2969 65504 65504 65504 65504 65504 65504 65504 65504 65504 65504 65504 65504 65504 65504 65504 65504 65504 65504 65504 65504 65504 65504 65504 65504 65504 65504 65504 65504 65504 65504 65504 65504 65504 65504
65504 65504 65504 65504 65504 65504 65504 65504 65504 65504 65504 65504 65504 65504 65504 65504 65504 65504 65504 65504 65504 65504 65504 65504 65504 65504 65504 65504 29.2188 29.1719 29.125 29.0938 29.0469 29 28.9531 28.9219 28.875 28.8281 28.7813 28.75 28.75 28.8438 28.7969 28.75 28.7188 28.6719 28.625 28.5938 28.5469 28.5 28.4688 28.4219 28.375 28.3438 28.2969 28.2656 28.0469 28 27.9688 27.9219 27.8906 27.8438 27.7969 27.7656 27.7188 27.7969 27.8281 27.7813 27.75 27.7031 27.6719 27.625 27.5938 27.5469 27.5156 27.4844 27.4375 27.4063 27.3594 27.3281 27.125 27.0781 27.0469 27.0156 26.9844 26.9375 26.9063 26.875 26.8281 26.7969 26.7656 26.7656 26.8594 26.8281 26.7969 26.7656 26.7188 26.6875 26.6563 26.625 26.5938 26.5469 26.5156 26.4844 26.4531 26.4219 26.3906 26.3594 26.3281 26.2969 26.2656 26.2188 26.1875 26.1563 26.125 26.0938 26.0625 26.0313 26 25.9688 25.9531 25.9219 25.8906 25.8594 25.8281 25.7969 25.7656 25.7344 25.7031 25.6719 25.6563 25.625 25.5938 25.5625 25.5313 25.5 25.4844 25.4531 25.4219 25.3906 25.375 25.3438 25.3125 25.2969 25.2656 25.2344 25.2031 25.1875 25.1563 24.9688 24.9531 24.9219 24.9063 24.875 24.8438 24.8281 24.7969 24.7813 24.75 24.7344 24.7031 24.7969 24.8125 24.7969 24.7656 24.75 24.7188 24.7031 24.6719 24.6563 24.6406 24.6094 24.5938 24.5781 24.5469 24.5313 24.5 24.3281 24.3125 24.2969 24.2656 24.25 24.2344 24.2188 24.1875 24.1719 24.3125 24.2969 24.2656 24.25 24.2344 24.2188 24.2031 24.1875 24.1563 24.1406 24.125 24.1094 24.0938 24.0781 24.0625 24.0469 23.875 23.8594 23.8438 23.8281 23.8125 23.7969 23.7813 23.7656 23.7656 23.75 23.7344 23.7188 23.8594 23.8438 23.8281 23.8125 23.7969 23.7813 23.7656 23.7656 23.75 23.7344 23.7188 23.7188 23.7031 23.6875 23.6719 23.6719 23.5156 23.5 23.4844 23.4844 23.4688 23.4531 23.4531 23.4375 23.4219 23.4219 23.5625 23.5469 23.5469 23.5313 23.5313 23.5156 23.5156 23.5 23.5 23.4844 23.4844 23.4688 23.4688 23.4531 23.4531 23.4531 23.2969 23.2813 23.2813 23.2813 23.2656 23.2656 23.2656 23.25 23.25 23.25 23.25 23.2344 23.2344 23.375 23.375 23.375 23.375 23.375 23.3594 23.3594 23.3594 23.3594 23.3594 23.3594 23.3594 23.3594 23.3438 23.3438 23.3438 23.3438 23.3438 23.3438 23.3438 23.3438 23.3438 23.3438 23.3438 23.3438 23.3438 23.3594 23.3594 23.3594 23.3594 23.3594 23.3594 23.3594 23.3594 23.375 23.375 23.375 23.375 23.375 23.3906 23.3906 23.3906 23.3906 23.4063 23.4063 23.4063 23.4219 23.4219 23.4219 23.4219 23.4375 23.4375 23.4531 23.4531 23.4531 23.4688 23.4688 23.4844 23.4844 23.4844 23.5 23.4219 23.3594 23.375 23.375 23.3906 23.3906 23.4063 23.4219 23.4219 23.4375 23.4375 23.4531 23.4531 23.6094 23.625 23.6406 23.6406 23.6563 23.6719 23.6719 23.6875 23.7031 23.7031 23.7188 23.7344 23.75 23.75 23.7656 23.7813 23.7969 23.6563 23.6719 23.6719 23.6875 23.7031 23.7188 23.7344 23.75 23.75 23.7656 23.7813 23.9531 23.9688 23.9688 23.9844 24 24.0156 24.0313 24.0469 24.0625 24.0781 24.0938 24.1094 24.125 24.1406 24.1563 24.1719 24.1875 24.0625 24.0781 24.0938 24.1094 24.125 24.1406 24.1563 24.1719 24.1875 24.2031 24.2344 24.25 24.2656 24.2813 65504 65504 65504 65504 65504 65504 65504 65504 65504 65504 65504 65504 65504 65504 65504 65504 65504 65504 65504 65504 65504 65504 65504 65504 65504 65504 65504 65504 65504 65504 65504 65504 65504 65504
65504 65504 65504 65504 65504 65504 65504 65504 65504 65504 65504 65504 65504 65504 65504 65504 65504 65504 65504 65504 65504 65504 65504 65504 65504 65504 65504 65504 29.2031 29.1563 29.1094 29.0625 29.0313 28.9844 28.9375 28.8906 28.8594 28.8125 28.7656 28.7188 28.7344 28.8125 28.7813 28.7344 28.6875 28.6563 28.6094 28.5625 28.5313 28.4844 28.4375 28.4063 28.3594 28.3281 28.2813 28.2344 28.0156 27.9844 27.9375 27.9063 27.8594 27.8281 27.7813 27.75 27.7031 27.7656 27.7969 27.7656 27.7188 27.6875 27.6406 27.6094 27.5781 27.5313 27.5 27.4531 27.4219 27.3906 27.3438 27.3125 27.0938 27.0625 27.0313 26.9844 26.9531 26.9219 26.8906 26.8438 26.8125 26.7813 26.75 26.7344 26.8438 26.8125 26.7656 26.7344 26.7031 26.6719 26.6406 26.5938 26.5625 26.5313 26.5 26.4688 26.4375 26.4063 26.3594 26.3281 26.2969 26.2656 26.2344 26.2031 26.1719 26.1406 26.1094 26.0781 26.0469 26.0156 25.9844 25.9531 25.9219 25.8906 25.8594 25.8281 25.7969 25.7656 25.75 25.7188 25.6875 25.6563 25.625 25.5938 25.5625 25.5469 25.5156 25.4844 25.4531 25.4219 25.4063 25.375 25.3438 25.3125 25.2969 25.2656 25.2344 25.2188 25.1875 25.1563 25.1406 24.9531 24.9219 24.9063 24.875 24.8594 24.8281 24.7969 24.7813 24.75 24.7344 24.7031 24.6875 24.7656 24.7969 24.7656 24.75 24.7188 24.7031 24.6719 24.6563 24.6406 24.6094 24.5938 24.5625 24.5469 24.5313 24.5 24.4844 24.3125 24.2969 24.2656 24.25 24.2344 24.2031 24.1875 24.1719 24.1563 24.2813 24.2656 24.25 24.2344 24.2188 24.1875 24.1719 24.1563 24.1406 24.125 24.1094 24.0938 24.0781 24.0625 24.0313 24.0156 23.8594 23.8438 23.8281 23.8125 23.7969 23.7813 23.7656 23.75 23.7344 23.7188 23.7031 23.6875 23.8281 23.8125 23.7969 23.7813 23.7813 23.7656 23.75 23.7344 23.7188 23.7188 23.7031 23.6875 23.6719 23.6719 23.6563 23.6406 23.4844 23.4688 23.4688 23.4531 23.4375 23.4375 23.4219 23.4063 23.4063 23.3906 23.5313 23.5313 23.5156 23.5156 23.5 23.5 23.4844 23.4844 23.4688 23.4688 23.4531 23.4531 23.4375 23.4375 23.4219 23.4219 23.2656 23.2656 23.2656 23.25 23.25 23.25 23.2344 23.2344 23.2344 23.2188 23.2188 23.2188 23.2188 23.3594 23.3594 23.3438 23.3438 23.3438 23.3438 23.3438 23.3438 23.3281 23.3281 23.3281 23.3281 23.3281 23.3281 23.3281 23.3281 23.3281 23.3281 23.3281 23.3281 23.3281 23.3281 23.3281 23.3281 23.3281 23.3281 23.3281 23.3281 23.3281 23.3281 23.3281 23.3438 23.3438 23.3438 23.3438 23.3438 23.3438 23.3594 23.3594 23.3594 23.3594 23.375 23.375 23.375 23.375 23.3906 23.3906 23.3906 23.4063 23.4063 23.4063 23.4219 23.4219 23.4219 23.4375 23.4375 23.4531 23.4531 23.4688 23.4688 23.4688 23.3906 23.3438 23.3438 23.3594 23.3594 23.375 23.3906 23.3906 23.4063 23.4063 23.4219 23.4219 23.4375 23.5938 23.6094 23.6094 23.625 23.6406 23.6406 23.6563 23.6719 23.6719 23.6875 23.7031 23.7031 23.7188 23.7344 23.75 23.75 23.7656 23.625 23.6406 23.6563 23.6719 23.6875 23.6875 23.7031 23.7188 23.7344 23.75 23.7656 23.9219 23.9375 23.9531 23.9688 23.9844 24 24.0156 24.0313 24.0469 24.0625 24.0781 24.0938 24.1094 24.125 24.1406 24.1563 24.1719 24.0313 24.0469 24.0625 24.0781 24.0938 24.125 24.1406 24.1563 24.1719 24.1875 24.2031 24.2188 24.2344 24.2656 65504 65504 65504 65504 65504 65504 65504 65504 65504 65504 65504 65504 65504 65504 65504 65504 65504 65504 65504 65504 65504 65504 65504 65504 65504 65504 65504 65504 65504 65504 65504 65504 65504 65504
65504 65504 65504 65504 65504 65504 65504 65504 65504 65504 65504 65504 65504 65504 65504 65504 65504 65504 65504 65504 65504 65504 65504 65504 65504 65504 65504 65504 29.1875 29.1406 29.0938 29.0469 29 28.9688 28.9219 28.875 28.8281 28.7969 28.75 28.7031 28.7031 28.7813 28.7656 28.7188 28.6719 28.625 28.5938 28.5469 28.5 28.4688 28.4219 28.375 28.3438 28.2969 28.2656 28.2188 28 27.9688 27.9219 27.875 27.8438 27.7969 27.7656 27.7188 27.6875 27.75 27.7813 27.75 27.7031 27.6719 27.625 27.5938 27.5469 27.5156 27.4688 27.4375 27.4063 27.3594 27.3281 27.2813 27.25 27.0469 27 26.9688 26.9375 26.9063 26.8594 26.8281 26.7969 26.75 26.7188 26.7031 26.8125 26.7813 26.75 26.7188 26.6875 26.6406 26.6094 26.5781 26.5469 26.5156 26.4844 26.4375 26.4063 26.375 26.3438 26.3125 26.2813 26.25 26.2188 26.1875 26.1563 26.125 26.0938 26.0625 26.0313 26 25.9688 25.9375 25.9063 25.875 25.8438 25.8125 25.7813 25.75 25.7188 25.6875 25.6563 25.6406 25.6094 25.5781 25.5469 25.5156 25.4844 25.4688 25.4375 25.4063 25.375 25.3594 25.3281 25.2969 25.2656 25.25 25.2188 25.1875 25.1719 25.1406 25.1094 24.9375 24.9063 24.875 24.8594 24.8281 24.8125 24.7813 24.75 24.7344 24.7031 24.6875 24.6563 24.75 24.7656 24.75 24.7188 24.7031 24.6719 24.6563 24.625 24.6094 24.5938 24.5625 24.5469 24.5313 24.5 24.4844 24.4531 24.2813 24.2656 24.25 24.2188 24.2031 24.1875 24.1719 24.1406 24.125 24.2656 24.25 24.2188 24.2031 24.1875 24.1719 24.1563 24.1406 24.1094 24.0938 24.0781 24.0625 24.0469 24.0313 24.0156 24 23.8281 23.8125 23.7969 23.7813 23.7656 23.75 23.7344 23.7188 23.7188 23.7031 23.6875 23.6719 23.7969 23.7969 23.7813 23.7656 23.75 23.7344 23.7188 23.7188 23.7031 23.6875 23.6719 23.6719 23.6563 23.6406 23.625 23.625 23.4531 23.4531 23.4375 23.4219 23.4219 23.4063 23.4063 23.3906 23.375 23.375 23.5156 23.5 23.5 23.4844 23.4688 23.4688 23.4531 23.4531 23.4375 23.4375 23.4375 23.4219 23.4219 23.4063 23.4063 23.3906 23.25 23.2344 23.2344 23.2344 23.2188 23.2188 23.2188 23.2031 23.2031 23.2031 23.2031 23.1875 23.1875 23.3281 23.3281 23.3281 23.3281 23.3125 23.3125 23.3125 23.3125 23.3125 23.3125 23.3125 23.3125 23.2969 23.2969 23.2969 23.2969 23.2969 23.2969 23.2969 23.2969 23.2969 23.2969 23.2969 23.2969 23.2969 23.2969 23.3125 23.3125 23.3125 23.3125 23.3125 23.3125 23.3125 23.3125 23.3281 23.3281 23.3281 23.3281 23.3281 23.3438 23.3438 23.3438 23.3438 23.3594 23.3594 23.3594 23.3594 23.375 23.375 23.375 23.3906 23.3906 23.4063 23.4063 23.4063 23.4219 23.4219 23.4375 23.4375 23.4375 23.4531 23.3594 23.3281 23.3281 23.3281 23.3438 23.3594 23.3594 23.375 23.375 23.3906 23.3906 23.4063 23.4063 23.5781 23.5781 23.5938 23.5938 23.6094 23.625 23.625 23.6406 23.6563 23.6719 23.6719 23.6875 23.7031 23.7031 23.7188 23.7344 23.75 23.6094 23.625 23.6406 23.6406 23.6563 23.6719 23.6875 23.7031 23.7188 23.7188 23.7344 23.9063 23.9219 23.9375 23.9531 23.9688 23.9688 23.9844 24 24.0156 24.0313 24.0469 24.0625 24.0781 24.1094 24.125 24.1406 24.1719 24.0156 24.0313 24.0469 24.0625 24.0781 24.0938 24.1094 24.125 24.1563 24.1719 24.1875 24.2031 24.2188 24.2344 65504 65504 65504 65504 65504 65504 65504 65504 65504 65504 65504 65504 65504 65504 65504 65504 65504 65504 65504 65504 65504 65504 65504 65504 65504 65504 65504 65504 65504 65504 65504 65504 65504 65504
65504 65504 65504 65504 65504 65504 65504 65504 65504 65504 65504 65504 65504 65504 65504 65504 65504 65504 65504 65504 65504 65504 65504 65504 65504 65504 65504 65504 29.1563 29.125 29.0781 29.0313 28.9844 28.9375 28.9063 28.8594 28.8125 28.7656 28.7344 28.6875 28.6875 28.7656 28.7344 28.7031 28.6563 28.6094 28.5625 28.5313 28.4844 28.4375 28.4063 28.3594 28.3281 28.2813 28.2344 28.2031 27.9844 27.9375 27.9063 27.8594 27.8281 27.7813 27.75 27.7031 27.6719 27.7188 27.7656 27.7188 27.6875 27.6406 27.6094 27.5625 27.5313 27.5 27.4531 27.4219 27.375 27.3438 27.2969 27.2656 27.2344 27.0156 26.9844 26.9531 26.9219 26.875 26.8438 26.8125 26.7656 26.7344 26.7031 26.6875 26.7969 26.7656 26.7344 26.6875 26.6563 26.625 26.5938 26.5625 26.5156 26.4844 26.4531 26.4219 26.3906 26.3594 26.3281 26.2969 26.25 26.2188 26.1875 26.1563 26.125 26.0938 26.0625 26.0313 26 25.9688 25.9375 25.9063 25.875 25.8438 25.8125 25.7813 25.7656 25.7344 25.7031 25.6719 25.6406 25.6094 25.5781 25.5469 25.5313 25.5 25.4688 25.4375 25.4063 25.3906 25.3594 25.3281 25.2969 25.2813 25.25 25.2188 25.1875 25.1719 25.1406 25.1094 25.0938 24.9063 24.875 24.8594 24.8281 24.8125 24.7813 24.75 24.7344 24.7031 24.6875 24.6563 24.6406 24.7188 24.75 24.7188 24.7031 24.6719 24.6563 24.625 24.6094 24.5938 24.5625 24.5469 24.5156 24.5 24.4844 24.4531 24.4375 24.2656 24.25 24.2188 24.2031 24.1875 24.1563 24.1406 24.125 24.1094 24.2344 24.2188 24.2031 24.1875 24.1719 24.1406 24.125 24.1094 24.0938 24.0781 24.0625 24.0469 24.0313 24 23.9844 23.9688 23.8125 23.7969 23.7813 23.7656 23.75 23.7344 23.7188 23.7031 23.6875 23.6719 23.6563 23.6406 23.7813 23.7656 23.75 23.7344 23.7344 23.7188 23.7031 23.6875 23.6719 23.6563 23.6563 23.6406 23.625 23.625 23.6094 23.5938 23.4375 23.4219 23.4219 23.4063 23.3906 23.3906 23.375 23.3594 23.3594 23.3438 23.4844 23.4844 23.4688 23.4531 23.4531 23.4375 23.4375 23.4219 23.4219 23.4063 23.4063 23.4063 23.3906 23.3906 23.375 23.375 23.2188 23.2188 23.2031 23.2031 23.2031 23.1875 23.1875 23.1875 23.1875 23.1719 23.1719 23.1719 23.1719 23.3125 23.2969 23.2969 23.2969 23.2969 23.2969 23.2969 23.2813 23.2813 23.2813 23.2813 23.2813 23.2813 23.2813 23.2813 23.2813 23.2813 23.2813 23.2813 23.2813 23.2813 23.2813 23.2813 23.2813 23.2813 23.2813 23.2813 23.2813 23.2813 23.2813 23.2813 23.2969 23.2969 23.2969 23.2969 23.2969 23.2969 23.3125 23.3125 23.3125 23.3125 23.3281 23.3281 23.3281 23.3281 23.3438 23.3438 23.3438 23.3594 23.3594 23.3594 23.375 23.375 23.375 23.3906 23.3906 23.4063 23.4063 23.4219 23.4219 23.4219 23.3281 23.2969 23.3125 23.3125 23.3281 23.3281 23.3438 23.3438 23.3594 23.3594 23.375 23.375 23.3906 23.5469 23.5625 23.5625 23.5781 23.5938 23.5938 23.6094 23.625 23.6406 23.6563 23.6875 23.7031 23.7188 23.7344 23.75 23.7656 23.7813 23.5938 23.5938 23.6094 23.625 23.6406 23.6563 23.6563 23.6719 23.6875 23.7031 23.7188 24 24.0156 24.0313 24.0625 24.0781 24.0938 24.1094 24.1406 24.1563 24.1719 24.2031 24.2188 24.2344 24.2656 24.2813 24.2969 24.1875 23.9844 24.0156 24.0313 24.0469 24.0625 24.0781 24.0938 24.1094 24.125 24.1406 24.1563 24.1875 24.2031 24.2188 65504 65504 65504 65504 65504 65504 65504 65504 65504 65504 65504 65504 65504 65504 65504 65504 65504 65504 65504 65504 65504 65504 65504 65504 65504 65504 65504 65504 65504 65504 65504 65504 65504 65504
65504 65504 65504 65504 65504 65504 65504 65504 65504 65504 65504 65504 65504 65504 65504 65504 65504 65504 65504 65504 65504 65504 65504 65504 65504 65504 65504 65504 29.1406 29.0938 29.0625 29.0156 28.9688 28.9219 28.875 28.8438 28.7969 28.75 28.7031 28.6719 28.6563 28.7344 28.7188 28.6719 28.6406 28.5938 28.5469 28.5156 28.4688 28.4219 28.3906 28.3438 28.2969 28.2656 28.2188 28.1719 27.9688 27.9219 27.875 27.8438 27.7969 27.7656 27.7188 27.6875 27.6406 27.6875 27.7344 27.7031 27.6563 27.625 27.5938 27.5469 27.5156 27.4688 27.4375 27.3906 27.3594 27.3281 27.2813 27.25 27.2031 27 26.9688 26.9375 26.8906 26.8594 26.8281 26.7813 26.75 26.7188 26.6719 26.6563 26.7656 26.75 26.7031 26.6719 26.6406 26.6094 26.5625 26.5313 26.5 26.4688 26.4375 26.4063 26.375 26.3281 26.2969 26.2656 26.2344 26.2031 26.1719 26.1406 26.1094 26.0781 26.0469 26.0156 25.9844 25.9531 25.9219 25.8906 25.8594 25.8281 25.7969 25.7656 25.7344 25.7031 25.6719 25.6406 25.625 25.5938 25.5625 25.5313 25.5 25.4688 25.4531 25.4219 25.3906 25.3594 25.3281 25.3125 25.2813 25.25 25.2188 25.2031 25.1719 25.1406 25.125 25.0938 25.0625 24.8906 24.8594 24.8281 24.8125 24.7813 24.7656 24.7344 24.7031 24.6875 24.6563 24.6406 24.6094 24.6875 24.7188 24.7031 24.6719 24.6563 24.625 24.6094 24.5938 24.5625 24.5469 24.5156 24.5 24.4844 24.4531 24.4375 24.4219 24.2344 24.2188 24.2031 24.1875 24.1563 24.1406 24.125 24.1094 24.0781 24.2188 24.2031 24.1719 24.1563 24.1406 24.125 24.1094 24.0938 24.0625 24.0469 24.0313 24.0156 24 23.9844 23.9688 23.9531 23.7813 23.7656 23.75 23.7344 23.7188 23.7031 23.6875 23.6719 23.6563 23.6563 23.6406 23.625 23.75 23.75 23.7344 23.7188 23.7031 23.6875 23.6719 23.6719 23.6563 23.6406 23.625 23.6094 23.6094 23.5938 23.5781 23.5781 23.4063 23.4063 23.3906 23.375 23.375 23.3594 23.3594 23.3438 23.3281 23.3281 23.4688 23.4531 23.4375 23.4375 23.4219 23.4219 23.4063 23.4063 23.3906 23.3906 23.3906 23.375 23.375 23.3594 23.3594 23.3438 23.2031 23.1875 23.1875 23.1875 23.1719 23.1719 23.1719 23.1563 23.1563 23.1563 23.1563 23.1406 23.1406 23.2813 23.2813 23.2813 23.2813 23.2656 23.2656 23.2656 23.2656 23.2656 23.2656 23.2656 23.25 23.25 23.25 23.25 23.25 23.25 23.25 23.25 23.25 23.25 23.25 23.25 23.25 23.25 23.25 23.25 23.2656 23.2656 23.2656 23.2656 23.2656 23.2656 23.2656 23.2813 23.2813 23.2813 23.2813 23.2813 23.2969 23.2969 23.2969 23.2969 23.3125 23.3125 23.3125 23.3281 23.3281 23.3281 23.3438 23.3438 23.3438 23.3594 23.3594 23.3594 23.375 23.375 23.3906 23.3906 23.4063 23.4063 23.2969 23.2813 23.2813 23.2969 23.2969 23.3125 23.3125 23.3281 23.3281 23.3438 23.3438 23.3594 23.375 23.6719 23.6875 23.7031 23.7188 23.7344 23.75 23.7656 23.7813 23.7969 23.8125 23.8281 23.8438 23.8594 23.875 23.8906 23.9219 23.7969 23.5625 23.5781 23.5938 23.6094 23.6094 23.625 23.6406 23.6563 23.6719 23.6875 24.125 24.1406 24.1563 24.1719 24.1875 24.2031 24.2188 24.2344 24.25 24.2656 24.2813 24.2969 24.3125 24.3281 24.3438 24.3594 24.375 24.1563 23.9688 23.9844 24 24.0156 24.0313 24.0469 24.0781 24.0938 24.1094 24.125 24.1406 24.1563 24.1719 24.2031 65504 65504 65504 65504 65504 65504 65504 65504 65504 65504 65504 65504 65504 65504 65504 65504 65504 65504 65504 65504 65504 65504 65504 65504 65504 65504 65504 65504 65504 65504 65504 65504 65504 65504
65504 65504 65504 65504 65504 65504 65504 65504 65504 65504 65504 65504 65504 65504 65504 65504 65504 65504 65504 65504 65504 65504 65504 65504 65504 65504 65504 65504 29.125 29.0781 29.0313 29 28.9531 28.9063 28.8594 28.8125 28.7813 28.7344 28.6875 28.6406 28.625 28.7188 28.7031 28.6563 28.6094 28.5781 28.5313 28.4844 28.4531 28.4063 28.3594 28.3281 28.2813 28.2344 28.2031 28.1563 27.9375 27.9063 27.8594 27.8281 27.7813 27.75 27.7031 27.6719 27.625 27.6719 27.7188 27.6875 27.6406 27.6094 27.5625 27.5313 27.4844 27.4531 27.4063 27.375 27.3438 27.2969 27.2656 27.2188 27.1875 26.9844 26.9531 26.9063 26.875 26.8438 26.7969 26.7656 26.7344 26.6875 26.6563 26.625 26.7344 26.7188 26.6875 26.6563 26.625 26.5781 26.5469 26.5156 26.4844 26.4531 26.4063 26.375 26.3438 26.3125 26.2813 26.25 26.2188 26.1875 26.1563 26.125 26.0781 26.0469 26.0156 25.9844 25.9531 25.9219 25.8906 25.8594 25.8281 25.8125 25.7813 25.75 25.7188 25.6875 25.6563 25.625 25.5938 25.5625 25.5313 25.5156 25.4844 25.4531 25.4219 25.3906 25.375 25.3438 25.3125 25.2813 25.25 25.2344 25.2031 25.1719 25.1563 25.125 25.0938 25.0781 25.0469 24.8594 24.8438 24.8125 24.7813 24.7656 24.7344 24.7188 24.6875 24.6563 24.6406 24.6094 24.5938 24.6719 24.7031 24.6719 24.6563 24.625 24.6094 24.5938 24.5625 24.5469 24.5156 24.5 24.4688 24.4531 24.4375 24.4063 24.3906 24.2188 24.2031 24.1719 24.1563 24.1406 24.125 24.0938 24.0781 24.0625 24.1875 24.1719 24.1563 24.1406 24.125 24.0938 24.0781 24.0625 24.0469 24.0313 24.0156 24 23.9844 23.9531 23.9375 23.9219 23.7656 23.75 23.7344 23.7188 23.7031 23.6875 23.6719 23.6563 23.6406 23.625 23.6094 23.5938 23.7344 23.7188 23.7031 23.6875 23.6719 23.6719 23.6563 23.6406 23.625 23.6094 23.6094 23.5938 23.5781 23.5625 23.5625 23.5469 23.3906 23.375 23.375 23.3594 23.3438 23.3438 23.3281 23.3125 23.3125 23.2969 23.4375 23.4375 23.4219 23.4063 23.4063 23.3906 23.3906 23.375 23.375 23.3594 23.3594 23.3594 23.3438 23.3438 23.3281 23.3281 23.1719 23.1719 23.1563 23.1563 23.1563 23.1406 23.1406 23.1406 23.1406 23.125 23.125 23.125 23.125 23.2656 23.25 23.25 23.25 23.25 23.25 23.25 23.2344 23.2344 23.2344 23.2344 23.2344 23.2344 23.2344 23.2344 23.2344 23.2344 23.2344 23.2344 23.2344 23.2344 23.2344 23.2344 23.2344 23.2344 23.2344 23.2344 23.2344 23.2344 23.2344 23.2344 23.25 23.25 23.25 23.25 23.25 23.25 23.2656 23.2656 23.2656 23.2656 23.2813 23.2813 23.2813 23.2813 23.2969 23.2969 23.2969 23.3125 23.3125 23.3125 23.3281 23.3281 23.3438 23.3438 23.3438 23.3594 23.3594 23.375 23.375 23.3906 23.2656 23.25 23.2656 23.2656 23.2813 23.2813 23.2969 23.2969 23.3125 23.3125 23.3281 23.3438 23.3438 23.7813 23.7969 23.7969 23.8125 23.8281 23.8281 23.8438 23.8594 23.8594 23.875 23.8906 23.9063 23.9063 23.9219 23.9375 23.9531 23.7656 23.5469 23.5625 23.5625 23.5781 23.5938 23.6094 23.625 23.6406 23.6406 23.6563 24.1094 24.125 24.1406 24.1563 24.1563 24.1719 24.1875 24.2031 24.2188 24.2344 24.25 24.2656 24.2813 24.2969 24.3125 24.3281 24.3438 24.1406 23.9531 23.9688 23.9844 24 24.0156 24.0313 24.0469 24.0625 24.0781 24.1094 24.125 24.1406 24.1563 24.1719 65504 65504 65504 65504 65504 65504 65504 65504 65504 65504 65504 65504 65504 65504 65504 65504 65504 65504 65504 65504 65504 65504 65504 65504 65504 65504 65504 65504 65504 65504 65504 65504 65504 65504
65504 65504 65504 65504 65504 65504 65504 65504 65504 65504 65504 65504 65504 65504 65504 65504 65504 65504 65504 65504 65504 65504 65504 65504 65504 65504 65504 65504 29.1094 29.0625 29.0156 28.9688 28.9375 28.8906 28.8438 28.7969 28.75 28.7188 28.6719 28.625 28.6094 28.6875 28.6875 28.6406 28.5938 28.5469 28.5156 28.4688 28.4219 28.3906 28.3438 28.2969 28.2656 28.2188 28.1875 28.1406 27.9219 27.8906 27.8438 27.7969 27.7656 27.7188 27.6875 27.6406 27.6094 27.6406 27.7031 27.6563 27.625 27.5781 27.5469 27.5 27.4688 27.4375 27.3906 27.3594 27.3125 27.2813 27.25 27.2031 27.1719 26.9688 26.9219 26.8906 26.8594 26.8125 26.7813 26.75 26.7031 26.6719 26.6406 26.6094 26.7188 26.7031 26.6719 26.625 26.5938 26.5625 26.5313 26.5 26.4531 26.4219 26.3906 26.3594 26.3281 26.2969 26.2656 26.2188 26.1875 26.1563 26.125 26.0938 26.0625 26.0313 26 25.9688 25.9375 25.9063 25.875 25.8438 25.8125 25.7813 25.75 25.7188 25.6875 25.6563 25.6406 25.6094 25.5781 25.5469 25.5156 25.4844 25.4531 25.4375 25.4063 25.375 25.3438 25.3125 25.2969 25.2656 25.2344 25.2031 25.1875 25.1563 25.125 25.0938 25.0781 25.0469 25.0156 24.8438 24.8125 24.7969 24.7656 24.7344 24.7188 24.6875 24.6719 24.6406 24.625 24.5938 24.5625 24.6406 24.6719 24.6563 24.625 24.6094 24.5781 24.5625 24.5469 24.5156 24.5 24.4688 24.4531 24.4375 24.4063 24.3906 24.375 24.1875 24.1719 24.1563 24.1406 24.1094 24.0938 24.0781 24.0625 24.0313 24.1719 24.1563 24.125 24.1094 24.0938 24.0781 24.0625 24.0469 24.0156 24 23.9844 23.9688 23.9531 23.9375 23.9219 23.9063 23.7344 23.7188 23.7031 23.6875 23.6719 23.6563 23.6406 23.625 23.625 23.6094 23.5938 23.5781 23.7031 23.7031 23.6875 23.6719 23.6563 23.6406 23.625 23.625 23.6094 23.5938 23.5781 23.5625 23.5625 23.5469 23.5313 23.5313 23.3594 23.3594 23.3438 23.3281 23.3281 23.3125 23.3125 23.2969 23.2813 23.2813 23.4219 23.4063 23.4063 23.3906 23.3906 23.3906 23.3906 23.3906 23.3906 23.375 23.375 23.375 23.375 23.375 23.375 23.375 23.1563 23.1406 23.1406 23.1406 23.125 23.125 23.125 23.1094 23.1094 23.1094 23.1094 23.0938 23.0938 23.2344 23.2344 23.2344 23.2344 23.2188 23.2188 23.2188 23.2188 23.2188 23.2188 23.2188 23.2188 23.2031 23.2031 23.2031 23.2031 23.2031 23.2031 23.2031 23.2031 23.2031 23.2031 23.2031 23.2031 23.2031 23.2031 23.2188 23.2188 23.2188 23.2188 23.2188 23.2188 23.2188 23.2188 23.2344 23.2344 23.2344 23.2344 23.2344 23.25 23.25 23.25 23.25 23.2656 23.2656 23.2656 23.2813 23.2813 23.2813 23.2969 23.2969 23.2969 23.3125 23.3125 23.3125 23.3281 23.3281 23.3438 23.3438 23.3594 23.3594 23.25 23.2344 23.2344 23.25 23.25 23.2656 23.2656 23.2813 23.2813 23.2969 23.3125 23.3125 23.3281 23.7656 23.7656 23.7813 23.7969 23.7969 23.8125 23.8281 23.8281 23.8438 23.8594 23.8594 23.875 23.8906 23.9063 23.9063 23.9219 23.7344 23.5156 23.5313 23.5469 23.5625 23.5781 23.5781 23.5938 23.6094 23.625 23.6406 24.0781 24.0938 24.1094 24.125 24.1406 24.1563 24.1719 24.1875 24.2031 24.2188 24.2344 24.25 24.2656 24.2813 24.2969 24.3125 24.3281 24.1094 23.9219 23.9375 23.9688 23.9844 24 24.0156 24.0313 24.0469 24.0625 24.0781 24.0938 24.125 24.1406 24.1563 65504 65504 65504 65504 65504 65504 65504 65504 65504 65504 65504 65504 65504 65504 65504 65504 65504 65504 65504 65504 65504 65504 65504 65504 65504 65504 65504 65504 65504 65504 65504 65504 65504 65504
65504 65504 65504 65504 65504 65504 65504 65504 65504 65504 65504 65504 65504 65504 65504 65504 65504 65504 65504 65504 65504 65504 65504 65504 65504 65504 65504 65504 29.0938 29.0469 29 28.9531 28.9063 28.875 28.8281 28.7813 28.7344 28.7031 28.6563 28.6094 28.5781 28.6563 28.6563 28.625 28.5781 28.5313 28.5 28.4531 28.4063 28.375 28.3281 28.2813 28.25 28.2031 28.1563 28.125 27.9063 27.8594 27.8281 27.7813 27.75 27.7031 27.6719 27.625 27.5938 27.625 27.6875 27.6406 27.6094 27.5625 27.5313 27.4844 27.4531 27.4063 27.375 27.3281 27.2969 27.2656 27.2188 27.1875 27.1563 26.9375 26.9063 26.875 26.8281 26.7969 26.7656 26.7188 26.6875 26.6563 26.625 26.5781 26.6875 26.6875 26.6406 26.6094 26.5781 26.5469 26.5 26.4688 26.4375 26.4063 26.375 26.3438 26.2969 26.2656 26.2344 26.2031 26.1719 26.1406 26.1094 26.0781 26.0469 26.0156 25.9844 25.9531 25.9219 25.8906 25.8594 25.8281 25.7969 25.7656 25.7344 25.7031 25.6719 25.6406 25.6094 25.5781 25.5469 25.5156 25.5 25.4688 25.4375 25.4063 25.375 25.3438 25.3281 25.2969 25.2656 25.2344 25.2188 25.1875 25.1563 25.125 25.1094 25.0781 25.0469 25.0313 25 24.8125 24.7969 24.7656 24.75 24.7188 24.6875 24.6719 24.6406 24.625 24.5938 24.5781 24.5469 24.6094 24.6563 24.625 24.6094 24.5781 24.5625 24.5469 24.5156 24.5 24.4688 24.4531 24.4375 24.4063 24.3906 24.3594 24.3438 24.1719 24.1563 24.125 24.1094 24.0938 24.0781 24.0469 24.0313 24.0156 24.1406 24.125 24.1094 24.0938 24.0781 24.0469 24.0313 24.0156 24 23.9844 23.9688 23.9531 23.9375 23.9219 23.8906 23.875 23.7188 23.7031 23.6875 23.6719 23.6563 23.6406 23.625 23.6094 23.5938 23.5781 23.5625 23.5469 23.7344 23.7188 23.7031 23.7031 23.6875 23.6875 23.6719 23.6719 23.6563 23.6563 23.6563 23.6406 23.6406 23.625 23.625 23.6094 23.3438 23.3281 23.3281 23.3125 23.2969 23.2969 23.2813 23.2656 23.2656 23.25 23.5625 23.5625 23.5469 23.5469 23.5469 23.5469 23.5469 23.5313 23.5313 23.5313 23.5313 23.5313 23.5313 23.5313 23.5313 23.5156 23.125 23.125 23.1094 23.1094 23.1094 23.0938 23.0938 23.0938 23.0938 23.0781 23.0781 23.0781 23.0781 23.2188 23.2031 23.2031 23.2031 23.2031 23.2031 23.2031 23.1875 23.1875 23.1875 23.1875 23.1875 23.1875 23.1875 23.1875 23.1875 23.1875 23.1875 23.1875 23.1875 23.1875 23.1875 23.1875 23.1875 23.1875 23.1875 23.1875 23.1875 23.1875 23.1875 23.1875 23.2031 23.2031 23.2031 23.2031 23.2031 23.2031 23.2188 23.2188 23.2188 23.2188 23.2344 23.2344 23.2344 23.2344 23.25 23.25 23.25 23.2656 23.2656 23.2656 23.2813 23.2813 23.2969 23.2969 23.2969 23.3125 23.3125 23.3281 23.3281 23.3438 23.2188 23.2031 23.2188 23.2188 23.2344 23.2344 23.25 23.25 23.2656 23.2813 23.2813 23.2969 23.2969 23.7344 23.75 23.75 23.7656 23.7813 23.7813 23.7969 23.8125 23.8281 23.8281 23.8438 23.8594 23.8594 23.875 23.8906 23.9063 23.7188 23.5 23.5156 23.5313 23.5313 23.5469 23.5625 23.5781 23.5938 23.6094 23.625 24.0625 24.0781 24.0938 24.1094 24.125 24.1406 24.1563 24.1719 24.1875 24.2031 24.2188 24.2344 24.25 24.2656 24.2813 24.2969 24.2969 24.0781 23.9063 23.9219 23.9375 23.9531 23.9688 23.9844 24.0156 24.0313 24.0469 24.0625 24.0781 24.0938 24.1094 24.1406 65504 65504 65504 65504 65504 65504 65504 65504 65504 65504 65504 65504 65504 65504 65504 65504 65504 65504 65504 65504 65504 65504 65504 65504 65504 65504 65504 65504 65504 65504 65504 65504 65504 65504
65504 65504 65504 65504 65504 65504 65504 65504 65504 65504 65504 65504 65504 65504 65504 65504 65504 65504 65504 65504 65504 65504 65504 65504 65504 65504 65504 65504 29.0625 29.0313 28.9844 28.9375 28.8906 28.8438 28.8125 28.7656 28.7188 28.6719 28.6406 28.5938 28.5625 28.6406 28.6406 28.5938 28.5625 28.5156 28.4688 28.4375 28.3906 28.3438 28.3125 28.2656 28.2188 28.1875 28.1406 28.0938 27.8906 27.8438 27.8125 27.7656 27.7188 27.6875 27.6406 27.6094 27.5625 27.5938 27.6563 27.625 27.5781 27.5469 27.5 27.4688 27.4375 27.3906 27.3594 27.3125 27.2813 27.2344 27.2031 27.1719 27.125 26.9219 26.8906 26.8438 26.8125 26.7813 26.7344 26.7031 26.6719 26.6406 26.5938 26.5625 26.6719 26.6563 26.625 26.5938 26.5625 26.5156 26.4844 26.4531 26.4219 26.3906 26.3438 26.3125 26.2813 26.25 26.2188 26.1875 26.1563 26.125 26.0938 26.0469 26.0156 25.9844 25.9531 25.9219 25.8906 25.8594 25.8281 25.7969 25.7656 25.7344 25.7031 25.6875 25.6563 25.625 25.5938 25.5625 25.5313 25.5 25.4688 25.4375 25.4219 25.3906 25.3594 25.3281 25.2969 25.2813 25.25 25.2188 25.1875 25.1563 25.1406 25.1094 25.0781 25.0625 25.0313 25 24.9844 24.7969 24.7656 24.75 24.7188 24.6875 24.6719 24.6406 24.625 24.5938 24.5781 24.5469 24.5313 24.5781 24.6406 24.6094 24.5938 24.5625 24.5469 24.5156 24.5 24.4688 24.4531 24.4375 24.4219 24.4063 24.3906 24.375 24.3594 24.1563 24.125 24.1094 24.0938 24.0625 24.0469 24.0313 24.0156 23.9844 24.1406 24.1875 24.1719 24.1563 24.1563 24.1406 24.125 24.1094 24.0938 24.0781 24.0781 24.0625 24.0469 24.0313 24.0313 24.0156 23.6875 23.6719 23.6563 23.6406 23.625 23.6094 23.5938 23.5938 23.5781 23.5625 23.5469 23.5313 23.7031 23.875 23.875 23.8594 23.8438 23.8438 23.8281 23.8281 23.8125 23.8125 23.8125 23.7969 23.7969 23.7813 23.7656 23.75 23.3125 23.3125 23.2969 23.2813 23.2813 23.2656 23.2656 23.25 23.2344 23.2344 23.6406 23.6406 23.625 23.625 23.6094 23.6094 23.5938 23.5938 23.5781 23.5781 23.5625 23.5625 23.5469 23.5469 23.5313 23.5313 23.1094 23.0938 23.0938 23.0938 23.0781 23.0781 23.0781 23.0625 23.0625 23.0625 23.0625 23.0469 23.0469 23.1875 23.1875 23.1875 23.1875 23.1719 23.1719 23.1719 23.1719 23.1719 23.1719 23.1719 23.1719 23.1563 23.1563 23.1563 23.1563 23.1563 23.1563 23.1563 23.1563 23.1563 23.1563 23.1563 23.1563 23.1563 23.1563 23.1719 23.1719 23.1719 23.1719 23.1719 23.1719 23.1719 23.1719 23.1875 23.1875 23.1875 23.1875 23.1875 23.2031 23.2031 23.2031 23.2031 23.2188 23.2188 23.2188 23.2344 23.2344 23.2344 23.25 23.25 23.25 23.2656 23.2656 23.2813 23.2813 23.2813 23.2969 23.2969 23.3125 23.3125 23.1875 23.1875 23.1875 23.2031 23.2031 23.2188 23.2188 23.2344 23.25 23.25 23.2656 23.2656 23.2813 23.7188 23.7188 23.7344 23.75 23.75 23.7656 23.7813 23.7813 23.7969 23.8125 23.8281 23.8281 23.8438 23.8594 23.875 23.875 23.6875 23.4844 23.4844 23.5 23.5156 23.5313 23.5469 23.5625 23.5625 23.5781 23.5938 24.0469 24.0625 24.0625 24.0781 24.0938 24.1094 24.125 24.1406 24.1563 24.1719 24.1875 24.2031 24.2188 24.2344 24.25 24.2656 24.2656 24.0469 23.8906 23.9063 23.9219 23.9375 23.9531 23.9688 23.9844 24 24.0313 24.0469 24.0625 24.0781 24.0938 24.1094 65504 65504 65504 65504 65504 65504 65504 65504 65504 65504 65504 65504 65504 65504 65504 65504 65504 65504 65504 65504 65504 65504 65504 65504 65504 65504 65504 65504 65504 65504 65504 65504 65504 65504
65504 65504 65504 65504 65504 65504 65504 65504 65504 65504 65504 65504 65504 65504 65504 65504 65504 65504 65504 65504 65504 65504 65504 65504 65504 65504 65504 65504 65504 29 28.9688 28.9219 28.875 28.8281 28.7813 28.75 28.7031 28.6563 28.6094 28.5781 28.5313 28.6094 28.625 28.5781 28.5469 28.5 28.4531 28.4063 28.375 28.3281 28.2813 28.25 28.2031 28.1719 28.125 28.0781 27.8594 27.8281 27.7813 27.75 27.7031 27.6719 27.625 27.5938 27.5469 27.5625 27.6406 27.6094 27.5625 27.5313 27.4844 27.4531 27.4063 27.375 27.3281 27.2969 27.2656 27.2188 27.1875 27.1406 27.1094 26.9063 26.8594 26.8281 26.7969 26.75 26.7188 26.6875 26.6563 26.6094 26.5781 26.5469 26.6406 26.6406 26.6094 26.5625 26.5313 26.5 26.4688 26.4375 26.3906 26.3594 26.3281 26.2969 26.2656 26.2344 26.2031 26.1563 26.125 26.0938 26.0625 26.0313 26 25.9688 25.9375 25.9063 25.875 25.8438 25.8125 25.7813 25.75 25.7188 25.6875 25.6563 25.625 25.5938 25.5625 25.5469 25.5156 25.4844 25.4531 25.4219 25.3906 25.3594 25.3438 25.3125 25.2813 25.25 25.2188 25.2031 25.1719 25.1406 25.1094 25.0938 25.0625 25.0313 25.0156 24.9844 24.9531 24.7813 24.75 24.7188 24.7031 24.6719 24.6563 24.625 24.5938 24.5781 24.5469 24.5313 24.5 24.5625 24.7344 24.7344 24.7188 24.7031 24.6875 24.6719 24.6406 24.625 24.6094 24.5938 24.5781 24.5625 24.5469 24.5313 24.5156 24.125 24.1094 24.0938 24.0625 24.0469 24.0313 24 23.9844 23.9688 24.125 24.3594 24.3438 24.3281 24.3125 24.2969 24.2813 24.25 24.2344 24.2188 24.2031 24.1875 24.1719 24.1563 24.1406 24.125 23.6719 23.6563 23.6406 23.625 23.6094 23.5938 23.5781 23.5625 23.5469 23.5313 23.5156 23.5 23.6719 23.9063 23.8906 23.875 23.8594 23.8594 23.8438 23.8281 23.8125 23.7969 23.7969 23.7813 23.7656 23.75 23.75 23.7344 23.2969 23.2813 23.2813 23.2656 23.25 23.25 23.2344 23.2188 23.2188 23.2031 23.6094 23.6094 23.6094 23.5938 23.5938 23.5781 23.5781 23.5625 23.5625 23.5469 23.5469 23.5313 23.5313 23.5156 23.5156 23.5156 23.0781 23.0781 23.0781 23.0625 23.0625 23.0625 23.0469 23.0469 23.0469 23.0313 23.0313 23.0313 23.0313 23.1719 23.1719 23.1563 23.1563 23.1563 23.1563 23.1563 23.1406 23.1406 23.1406 23.1406 23.1406 23.1406 23.1406 23.1406 23.1406 23.1406 23.1406 23.1406 23.1406 23.1406 23.1406 23.1406 23.1406 23.1406 23.1406 23.1406 23.1406 23.1406 23.1406 23.1563 23.1563 23.1563 23.1563 23.1563 23.1563 23.1719 23.1719 23.1719 23.1719 23.1875 23.1875 23.1875 23.1875 23.2031 23.2031 23.2031 23.2188 23.2188 23.2188 23.2344 23.2344 23.2344 23.25 23.25 23.2656 23.2656 23.2656 23.2813 23.2813 23.2969 23.1563 23.1563 23.1719 23.1719 23.1875 23.1875 23.2031 23.2188 23.2188 23.2344 23.2344 23.25 23.6875 23.6875 23.7031 23.7188 23.7188 23.7344 23.75 23.75 23.7656 23.7813 23.7813 23.7969 23.8125 23.8281 23.8281 23.8438 23.8594 23.6563 23.4531 23.4688 23.4844 23.5 23.5 23.5156 23.5313 23.5469 23.5625 23.5781 24.0156 24.0313 24.0469 24.0625 24.0781 24.0938 24.1094 24.125 24.1406 24.1563 24.1719 24.1875 24.2031 24.2188 24.2344 24.25 24.2344 24.0313 23.8594 23.875 23.9063 23.9219 23.9375 23.9531 23.9688 23.9844 24 24.0156 24.0469 24.0625 24.0781 24.0938 65504 65504 65504 65504 65504 65504 65504 65504 65504 65504 65504 65504 65504 65504 65504 65504 65504 65504 65504 65504 65504 65504 65504 65504 65504 65504 65504 65504 65504 65504 65504 65504 65504 65504
65504 65504 65504 65504 65504 65504 65504 65504 65504 65504 65504 65504 65504 65504 65504 65504 65504 65504 65504 65504 65504 65504 65504 65504 65504 65504 65504 65504 65504 28.9844 28.9531 28.9063 28.8594 28.8125 28.7656 28.7344 28.6875 28.6406 28.5938 28.5625 28.5156 28.5938 28.6094 28.5625 28.5156 28.4844 28.4375 28.3906 28.3594 28.3125 28.2656 28.2344 28.1875 28.1406 28.1094 28.0625 27.8438 27.8125 27.7656 27.7344 27.6875 27.6406 27.6094 27.5625 27.5313 27.5469 27.625 27.5781 27.5469 27.5 27.4688 27.4219 27.3906 27.3594 27.3125 27.2813 27.2344 27.2031 27.1563 27.125 27.0938 26.875 26.8438 26.8125 26.7656 26.7344 26.7031 26.6719 26.625 26.5938 26.5625 26.5156 26.6094 26.625 26.5781 26.5469 26.5156 26.4844 26.4375 26.4063 26.375 26.3438 26.3125 26.2813 26.2344 26.2031 26.1719 26.1406 26.1094 26.0781 26.0469 26.0156 25.9844 25.9531 25.9219 25.8906 25.8594 25.8281 25.7969 25.7656 25.7344 25.7031 25.6719 25.6406 25.6094 25.5781 25.5469 25.5156 25.4844 25.4531 25.4375 25.4063 25.375 25.3438 25.3125 25.2813 25.2656 25.2344 25.2031 25.1719 25.1406 25.125 25.0938 25.0625 25.0469 25.0156 24.9844 24.9531 24.9375 24.75 24.7344 24.7031 24.6719 24.6563 24.625 24.6094 24.5781 24.5469 24.5313 24.5 24.4844 24.5313 24.7188 24.8594 24.8281 24.8125 24.7813 24.7656 24.7344 24.7188 24.7031 24.6719 24.6563 24.625 24.6094 24.5938 24.5625 24.1094 24.0781 24.0625 24.0469 24.0313 24 23.9844 23.9688 23.9531 24.0938 24.3281 24.3281 24.3125 24.2813 24.2656 24.25 24.2344 24.2188 24.2031 24.1875 24.1563 24.1406 24.125 24.1094 24.0938 23.6406 23.625 23.6094 23.5938 23.5781 23.5625 23.5625 23.5469 23.5313 23.5156 23.5 23.4844 23.6563 23.8906 23.875 23.8594 23.8438 23.8281 23.8125 23.7969 23.7969 23.7813 23.7656 23.75 23.75 23.7344 23.7188 23.7031 23.7031 23.2656 23.25 23.25 23.2344 23.2188 23.2188 23.2031 23.1875 23.1875 23.5781 23.5938 23.5781 23.5781 23.5625 23.5625 23.5469 23.5469 23.5313 23.5313 23.5156 23.5156 23.5 23.5 23.4844 23.4844 23.0625 23.0469 23.0469 23.0469 23.0313 23.0313 23.0313 23.0156 23.0156 23.0156 23.0156 23 23 23.1406 23.1406 23.1406 23.1406 23.125 23.125 23.125 23.125 23.125 23.125 23.125 23.125 23.125 23.1094 23.1094 23.1094 23.1094 23.1094 23.1094 23.1094 23.1094 23.1094 23.1094 23.1094 23.1094 23.125 23.125 23.125 23.125 23.125 23.125 23.125 23.125 23.1406 23.1406 23.1406 23.1406 23.1406 23.1563 23.1563 23.1563 23.1563 23.1719 23.1719 23.1719 23.1719 23.1875 23.1875 23.1875 23.2031 23.2031 23.2188 23.2188 23.2188 23.2344 23.2344 23.25 23.25 23.25 23.2656 23.2656 23.1406 23.1406 23.1563 23.1563 23.1719 23.1719 23.1875 23.1875 23.2031 23.2031 23.2188 23.2344 23.6563 23.6719 23.6875 23.6875 23.7031 23.7031 23.7188 23.7344 23.75 23.75 23.7656 23.7813 23.7969 23.7969 23.8125 23.8281 23.8438 23.625 23.4375 23.4531 23.4531 23.4688 23.4844 23.5 23.5156 23.5313 23.5469 23.5469 24 24.0156 24.0313 24.0469 24.0625 24.0781 24.0938 24.1094 24.1094 24.125 24.1406 24.1719 24.1875 24.2031 24.2188 24.2344 24.2188 24 23.8438 23.8594 23.875 23.8906 23.9063 23.9375 23.9531 23.9688 23.9844 24 24.0156 24.0313 24.0625 24.0781 65504 65504 65504 65504 65504 65504 65504 65504 65504 65504 65504 65504 65504 65504 65504 65504 65504 65504 65504 65504 65504 65504 65504 65504 65504 65504 65504 65504 65504 65504 65504 65504 65504 65504
65504 65504 65504 65504 65504 65504 65504 65504 65504 65504 65504 65504 65504 65504 65504 65504 65504 65504 65504 65504 65504 65504 65504 65504 65504 65504 65504 65504 65504 28.9688 28.9219 28.8906 28.8438 28.7969 28.75 28.7031 28.6719 28.625 28.5781 28.5313 28.5 28.5625 28.5938 28.5469 28.5 28.4531 28.4219 28.375 28.3281 28.2969 28.25 28.2031 28.1719 28.125 28.0781 28.0469 27.8281 27.7813 27.75 27.7031 27.6719 27.625 27.5938 27.5469 27.5156 27.5156 27.6094 27.5781 27.5469 27.5156 27.4844 27.4531 27.4219 27.3906 27.3594 27.3281 27.2969 27.25 27.2188 27.1875 27.1563 26.8594 26.8281 26.7969 26.75 26.7188 26.6875 26.6406 26.6094 26.5781 26.5313 26.5 26.5938 26.5938 26.5625 26.5313 26.5 26.4531 26.4219 26.3906 26.3594 26.3281 26.2813 26.25 26.2188 26.1875 26.1563 26.125 26.0938 26.0625 26.0313 25.9844 25.9531 25.9219 25.8906 25.8594 25.8281 25.7969 25.7656 25.7344 25.7031 25.6719 25.6406 25.6094 25.5938 25.5625 25.5313 25.5 25.4688 25.4375 25.4063 25.375 25.3438 25.3281 25.2969 25.2656 25.2344 25.2031 25.1875 25.1563 25.125 25.0938 25.0781 25.0469 25.0156 24.9844 24.9688 24.9375 24.9063 24.7344 24.7031 24.6875 24.6563 24.625 24.6094 24.5781 24.5625 24.5313 24.5 24.4844 24.4531 24.5 24.6875 24.8281 24.8125 24.7813 24.7656 24.7344 24.7188 24.7031 24.6719 24.6563 24.625 24.6094 24.5938 24.5625 24.5469 24.0781 24.0625 24.0469 24.0156 24 23.9844 23.9688 23.9375 23.9219 24.0625 24.2969 24.2969 24.2813 24.2656 24.25 24.2344 24.2031 24.1875 24.1719 24.1563 24.1406 24.125 24.1094 24.0938 24.0781 23.625 23.6094 23.5938 23.5781 23.5625 23.5469 23.5313 23.5156 23.5 23.4844 23.4688 23.4688 23.625 23.8594 23.8438 23.8281 23.8125 23.8125 23.7969 23.7813 23.7656 23.75 23.75 23.7344 23.7188 23.7031 23.7031 23.6875 23.6719 23.2344 23.2344 23.2188 23.2031 23.2031 23.1875 23.1875 23.1719 23.1563 23.5625 23.5625 23.5625 23.5469 23.5469 23.5313 23.5313 23.5156 23.5156 23.5 23.5 23.4844 23.4844 23.4688 23.4688 23.4688 23.0313 23.0313 23.0313 23.0156 23.0156 23.0156 23 23 23 22.9844 22.9844 22.9844 22.9844 23.125 23.125 23.1094 23.1094 23.1094 23.1094 23.1094 23.1094 23.0938 23.0938 23.0938 23.0938 23.0938 23.0938 23.0938 23.0938 23.0938 23.0938 23.0938 23.0938 23.0938 23.0938 23.0938 23.0938 23.0938 23.0938 23.0938 23.0938 23.0938 23.1094 23.1094 23.1094 23.1094 23.1094 23.1094 23.125 23.125 23.125 23.125 23.125 23.1406 23.1406 23.1406 23.1406 23.1563 23.1563 23.1563 23.1719 23.1719 23.1719 23.1875 23.1875 23.2031 23.2031 23.2031 23.2188 23.2188 23.2344 23.2344 23.25 23.25 23.1094 23.125 23.125 23.1406 23.1406 23.1563 23.1563 23.1719 23.1719 23.1875 23.2031 23.2031 23.6406 23.6406 23.6563 23.6719 23.6719 23.6875 23.7031 23.7031 23.7188 23.7344 23.75 23.75 23.7656 23.7813 23.7969 23.7969 23.8125 23.5938 23.4219 23.4219 23.4375 23.4531 23.4688 23.4844 23.4844 23.5 23.5156 23.5313 23.9688 23.9844 24 24.0156 24.0313 24.0469 24.0625 24.0781 24.0938 24.1094 24.125 24.1406 24.1563 24.1719 24.1875 24.2031 24.1875 23.9688 23.8281 23.8438 23.8594 23.875 23.8906 23.9063 23.9219 23.9531 23.9688 23.9844 24 24.0156 24.0313 24.0469 65504 65504 65504 65504 65504 65504 65504 65504 65504 65504 65504 65504 65504 65504 65504 65504 65504 65504 65504 65504 65504 65504 65504 65504 65504 65504 65504 65504 65504 65504 65504 65504 65504 65504
65504 65504 65504 65504 65504 65504 65504 65504 65504 65504 65504 65504 65504 65504 65504 65504 65504 65504 65504 65504 65504 65504 65504 65504 65504 65504 65504 65504 65504 28.9531 28.9063 28.8594 28.8281 28.7813 28.7344 28.6875 28.6406 28.6094 28.5625 28.5156 28.4688 28.5469 28.625 28.6094 28.5781 28.5469 28.5 28.4688 28.4375 28.4063 28.3594 28.3281 28.2969 28.2656 28.2188 28.1875 27.8125 27.7656 27.7344 27.6875 27.6563 27.6094 27.5625 27.5313 27.4844 27.5 27.5938 27.6875 27.75 27.7188 27.6719 27.6406 27.6094 27.5781 27.5469 27.5156 27.4844 27.4531 27.4219 27.3906 27.3594 26.8438 26.8125 26.7656 26.7344 26.7031 26.6563 26.625 26.5938 26.5469 26.5156 26.4844 26.5625 26.5781 26.5469 26.5156 26.4688 26.4375 26.4063 26.375 26.3438 26.2969 26.2656 26.2344 26.2031 26.1719 26.1406 26.1094 26.0625 26.0313 26 25.9688 25.9375 25.9063 25.875 25.8438 25.8125 25.7813 25.75 25.7188 25.6875 25.6563 25.625 25.5938 25.5625 25.5313 25.5 25.4688 25.4531 25.4219 25.3906 25.3594 25.3281 25.2969 25.2656 25.25 25.2188 25.1875 25.1563 25.125 25.1094 25.0781 25.0469 25.0313 25 24.9688 24.9375 24.9219 24.8906 24.7031 24.6875 24.6563 24.6406 24.6094 24.5781 24.5625 24.5313 24.5156 24.4844 24.4688 24.4375 24.4844 24.6563 24.8125 24.7813 24.7656 24.7344 24.7188 24.7031 24.6719 24.6563 24.625 24.6094 24.5781 24.5625 24.5469 24.5156 24.0625 24.0469 24.0156 24 23.9844 23.9531 23.9375 23.9219 23.9063 24.0469 24.2813 24.2813 24.2656 24.25 24.2188 24.2031 24.1875 24.1719 24.1563 24.1406 24.125 24.0938 24.0781 24.0625 24.0469 23.6094 23.5938 23.5781 23.5625 23.5469 23.5313 23.5156 23.5 23.4844 23.4688 23.4531 23.4375 23.5938 23.8438 23.8281 23.8125 23.7969 23.7813 23.7656 23.7656 23.75 23.7344 23.7188 23.7031 23.7031 23.6875 23.6719 23.6563 23.6563 23.2188 23.2031 23.2031 23.1875 23.1719 23.1719 23.1563 23.1563 23.1406 23.5313 23.5469 23.5313 23.5313 23.5156 23.5156 23.5 23.5 23.4844 23.4844 23.4688 23.4688 23.4531 23.4531 23.4531 23.4375 23.0156 23.0156 23 23 23 22.9844 22.9844 22.9844 22.9688 22.9688 22.9688 22.9688 22.9531 23.0938 23.0938 23.0938 23.0938 23.0938 23.0781 23.0781 23.0781 23.0781 23.0781 23.0781 23.0781 23.0781 23.0781 23.0781 23.0625 23.0625 23.0625 23.0625 23.0625 23.0625 23.0625 23.0781 23.0781 23.0781 23.0781 23.0781 23.0781 23.0781 23.0781 23.0781 23.0781 23.0938 23.0938 23.0938 23.0938 23.0938 23.0938 23.1094 23.1094 23.1094 23.1094 23.125 23.125 23.125 23.1406 23.1406 23.1406 23.1563 23.1563 23.1563 23.1719 23.1719 23.1719 23.1875 23.1875 23.2031 23.2031 23.2188 23.2188 23.2344 23.0938 23.0938 23.1094 23.1094 23.125 23.125 23.1406 23.1406 23.1563 23.1719 23.1719 23.1875 23.6094 23.625 23.6406 23.6406 23.6563 23.6719 23.6719 23.6875 23.7031 23.7188 23.7188 23.7344 23.75 23.75 23.7656 23.7813 23.7969 23.5781 23.3906 23.4063 23.4219 23.4375 23.4375 23.4531 23.4688 23.4844 23.5 23.5156 23.9531 23.9688 23.9844 24 24.0156 24.0313 24.0469 24.0625 24.0781 24.0938 24.1094 24.125 24.1406 24.1563 24.1719 24.1875 24.1563 23.9531 23.7969 23.8281 23.8438 23.8594 23.875 23.8906 23.9063 23.9219 23.9375 23.9688 23.9844 24 24.0156 24.0313 65504 65504 65504 65504 65504 65504 65504 65504 65504 65504 65504 65504 65504 65504 65504 65504 65504 65504 65504 65504 65504 65504 65504 65504 65504 65504 65504 65504 65504 65504 65504 65504 65504 65504
65504 65504 65504 65504 65504 65504 65504 65504 65504 65504 65504 65504 65504 65504 65504 65504 65504 65504 65504 65504 65504 65504 65504 65504 65504 65504 65504 65504 65504 28.9375 28.8906 28.8438 28.8125 28.7656 28.7188 28.6719 28.625 28.5938 28.5469 28.5 28.4531 28.5156 28.5938 28.6875 28.7656 28.75 28.7188 28.6719 28.625 28.5938 28.5469 28.5 28.4688 28.4219 28.375 28.3438 27.7969 27.75 27.7031 27.6719 27.625 27.5938 27.5469 27.5156 27.4688 27.4688 27.5625 27.6563 27.75 27.7813 27.7344 27.7031 27.6563 27.625 27.5781 27.5469 27.5 27.4688 27.4219 27.3906 27.3438 26.8281 26.7813 26.75 26.7188 26.6719 26.6406 26.6094 26.5625 26.5313 26.5 26.4688 26.5469 26.5625 26.5313 26.4844 26.4531 26.4219 26.3906 26.3438 26.3125 26.2813 26.25 26.2188 26.1875 26.1406 26.1094 26.0781 26.0469 26.0156 25.9844 25.9531 25.9219 25.8906 25.8594 25.8281 25.7969 25.7656 25.7344 25.7031 25.6719 25.6406 25.6094 25.5781 25.5469 25.5156 25.4844 25.4531 25.4219 25.3906 25.3594 25.3438 25.3125 25.2813 25.25 25.2188 25.1875 25.1719 25.1406 25.1094 25.0781 25.0625 25.0313 25 24.9688 24.9531 24.9219 24.8906 24.875 24.6875 24.6563 24.6406 24.6094 24.5938 24.5625 24.5313 24.5156 24.4844 24.4688 24.4375 24.4219 24.4531 24.6406 24.7969 24.7656 24.75 24.7188 24.7031 24.6719 24.6563 24.625 24.6094 24.5781 24.5625 24.5469 24.5156 24.5 24.0469 24.0156 24 23.9844 23.9531 23.9375 23.9219 23.9063 23.875 24.0156 24.25 24.2656 24.2344 24.2188 24.2031 24.1875 24.1719 24.1406 24.125 24.1094 24.0938 24.0781 24.0625 24.0469 24.0313 23.5781 23.5625 23.5469 23.5313 23.5156 23.5 23.4844 23.4688 23.4531 23.4375 23.4375 23.4219 23.5781 23.8125 23.7969 23.7813 23.7813 23.7656 23.75 23.7344 23.7188 23.7031 23.7031 23.6875 23.6719 23.6563 23.6563 23.6406 23.625 23.2031 23.1875 23.1719 23.1719 23.1563 23.1406 23.1406 23.125 23.125 23.5156 23.5156 23.5156 23.5 23.5 23.4844 23.4844 23.4688 23.4688 23.4531 23.4531 23.4375 23.4375 23.4219 23.4219 23.4219 22.9844 22.9844 22.9844 22.9688 22.9688 22.9688 22.9531 22.9531 22.9531 22.9531 22.9375 22.9375 22.9375 23.0781 23.0781 23.0781 23.0625 23.0625 23.0625 23.0625 23.0625 23.0625 23.0469 23.0469 23.0469 23.0469 23.0469 23.0469 23.0469 23.0469 23.0469 23.0469 23.0469 23.0469 23.0469 23.0469 23.0469 23.0469 23.0469 23.0469 23.0469 23.0625 23.0625 23.0625 23.0625 23.0625 23.0625 23.0625 23.0781 23.0781 23.0781 23.0781 23.0938 23.0938 23.0938 23.0938 23.1094 23.1094 23.1094 23.125 23.125 23.125 23.1406 23.1406 23.1406 23.1563 23.1563 23.1719 23.1719 23.1719 23.1875 23.1875 23.2031 23.2031 23.0625 23.0781 23.0781 23.0938 23.0938 23.1094 23.125 23.125 23.1406 23.1406 23.1563 23.1563 23.5938 23.6094 23.6094 23.625 23.6406 23.6406 23.6563 23.6719 23.6719 23.6875 23.7031 23.7188 23.7188 23.7344 23.75 23.7656 23.7656 23.5469 23.375 23.3906 23.3906 23.4063 23.4219 23.4375 23.4531 23.4688 23.4844 23.4844 23.9375 23.9531 23.9688 23.9844 24 24.0156 24.0313 24.0313 24.0469 24.0625 24.0938 24.1094 24.125 24.1406 24.1563 24.1719 24.1406 23.9219 23.7813 23.7969 23.8125 23.8281 23.8594 23.875 23.8906 23.9063 23.9219 23.9375 23.9531 23.9844 24 24.0156 65504 65504 65504 65504 65504 65504 65504 65504 65504 65504 65504 65504 65504 65504 65504 65504 65504 65504 65504 65504 65504 65504 65504 65504 65504 65504 65504 65504 65504 65504 65504 65504 65504 65504
65504 65504 65504 65504 65504 65504 65504 65504 65504 65504 65504 65504 65504 65504 65504 65504 65504 65504 65504 65504 65504 65504 65504 65504 65504 65504 65504 65504 65504 28.9219 28.875 28.8281 28.7813 28.75 28.7031 28.6563 28.6094 28.5625 28.5313 28.4844 28.4375 28.5 28.5781 28.6563 28.75 28.75 28.7031 28.6563 28.6094 28.5781 28.5313 28.4844 28.4531 28.4063 28.3594 28.3281 27.7656 27.7344 27.6875 27.6563 27.6094 27.5781 27.5313 27.5 27.4531 27.4531 27.5469 27.6406 27.7344 27.75 27.7188 27.6719 27.6406 27.5938 27.5625 27.5156 27.4844 27.4375 27.4063 27.375 27.3281 26.7969 26.7656 26.7344 26.6875 26.6563 26.625 26.5781 26.5469 26.5156 26.4844 26.4375 26.5156 26.5469 26.5 26.4688 26.4375 26.4063 26.3594 26.3281 26.2969 26.2656 26.2344 26.1875 26.1563 26.125 26.0938 26.0625 26.0313 26 25.9688 25.9375 25.9063 25.8594 25.8281 25.7969 25.7656 25.7344 25.7031 25.6719 25.6406 25.6094 25.5781 25.5469 25.5313 25.5 25.4688 25.4375 25.4063 25.375 25.3438 25.3125 25.2813 25.2656 25.2344 25.2031 25.1719 25.1406 25.125 25.0938 25.0625 25.0313 25.0156 24.9844 24.9531 24.9219 24.9063 24.875 24.8438 24.6719 24.6406 24.6094 24.5938 24.5625 24.5469 24.5156 24.4844 24.4688 24.4375 24.4219 24.3906 24.4219 24.6094 24.7656 24.75 24.7188 24.7031 24.6719 24.6563 24.625 24.6094 24.5781 24.5625 24.5469 24.5156 24.5 24.4844 24.0156 24 23.9844 23.9531 23.9375 23.9219 23.8906 23.875 23.8594 23.9844 24.2188 24.2344 24.2188 24.2031 24.1875 24.1563 24.1406 24.125 24.1094 24.0938 24.0781 24.0625 24.0313 24.0156 24 23.5625 23.5469 23.5313 23.5156 23.5 23.4844 23.4688 23.4531 23.4375 23.4219 23.4063 23.3906 23.5469 23.7969 23.7813 23.7656 23.75 23.7344 23.7188 23.7188 23.7031 23.6875 23.6719 23.6563 23.6563 23.6406 23.625 23.625 23.6094 23.1719 23.1563 23.1563 23.1406 23.1406 23.125 23.1094 23.1094 23.0938 23.4844 23.5 23.4844 23.4844 23.4688 23.4688 23.4531 23.4531 23.4375 23.4375 23.4219 23.4219 23.4063 23.4063 23.4063 23.3906 22.9688 22.9688 22.9531 22.9531 22.9531 22.9375 22.9375 22.9375 22.9219 22.9219 22.9219 22.9219 22.9219 23.0469 23.0469 23.0469 23.0469 23.0469 23.0469 23.0313 23.0313 23.0313 23.0313 23.0313 23.0313 23.0313 23.0313 23.0313 23.0313 23.0313 23.0313 23.0313 23.0313 23.0313 23.0313 23.0313 23.0313 23.0313 23.0313 23.0313 23.0313 23.0313 23.0313 23.0313 23.0469 23.0469 23.0469 23.0469 23.0469 23.0469 23.0625 23.0625 23.0625 23.0625 23.0781 23.0781 23.0781 23.0938 23.0938 23.0938 23.0938 23.1094 23.1094 23.125 23.125 23.125 23.1406 23.1406 23.1563 23.1563 23.1563 23.1719 23.1719 23.1875 23.0469 23.0469 23.0625 23.0781 23.0781 23.0938 23.0938 23.1094 23.1094 23.125 23.125 23.1406 23.5781 23.5781 23.5938 23.6094 23.6094 23.625 23.6406 23.6406 23.6563 23.6719 23.6875 23.6875 23.7031 23.7188 23.7344 23.7344 23.75 23.5156 23.3594 23.3594 23.375 23.3906 23.4063 23.4219 23.4375 23.4375 23.4531 23.4688 23.9063 23.9219 23.9375 23.9531 23.9688 23.9844 24 24.0156 24.0313 24.0469 24.0625 24.0781 24.0938 24.1094 24.125 24.1406 24.1094 23.8906 23.7656 23.7813 23.7969 23.8125 23.8281 23.8438 23.875 23.8906 23.9063 23.9219 23.9375 23.9531 23.9844 24 65504 65504 65504 65504 65504 65504 65504 65504 65504 65504 65504 65504 65504 65504 65504 65504 65504 65504 65504 65504 65504 65504 65504 65504 65504 65504 65504 65504 65504 65504 65504 65504 65504 65504
65504 65504 65504 65504 65504 65504 65504 65504 65504 65504 65504 65504 65504 65504 65504 65504 65504 65504 65504 65504 65504 65504 65504 65504 65504 65504 65504 65504 65504 28.9063 28.8594 28.8125 28.7656 28.7188 28.6875 28.6406 28.5938 28.5469 28.5156 28.4688 28.4219 28.4688 28.5469 28.6406 28.7188 28.7188 28.6875 28.6406 28.5938 28.5469 28.5156 28.4688 28.4219 28.3906 28.3438 28.2969 27.75 27.7188 27.6719 27.6406 27.5938 27.5469 27.5156 27.4688 27.4375 27.4219 27.5156 27.6094 27.7031 27.7344 27.7031 27.6563 27.625 27.5781 27.5469 27.5 27.4688 27.4219 27.3906 27.3438 27.3125 26.7813 26.75 26.7188 26.6719 26.6406 26.6094 26.5625 26.5313 26.5 26.4531 26.4219 26.4844 26.5156 26.4844 26.4531 26.4219 26.375 26.3438 26.3125 26.2813 26.25 26.2031 26.1719 26.1406 26.1094 26.0781 26.0469 26.0156 25.9688 25.9375 25.9063 25.875 25.8438 25.8125 25.7813 25.75 25.7188 25.6875 25.6563 25.625 25.5938 25.5625 25.5313 25.5 25.4688 25.4375 25.4063 25.3906 25.3594 25.3281 25.2969 25.2656 25.2344 25.2031 25.1875 25.1563 25.125 25.0938 25.0625 25.0469 25.0156 24.9844 24.9531 24.9375 24.9063 24.875 24.8594 24.8281 24.6406 24.625 24.5938 24.5625 24.5469 24.5156 24.5 24.4688 24.4531 24.4219 24.3906 24.375 24.4063 24.5781 24.75 24.7188 24.7031 24.6719 24.6563 24.625 24.6094 24.5938 24.5625 24.5469 24.5156 24.5 24.4688 24.4531 24 23.9688 23.9531 23.9375 23.9219 23.8906 23.875 23.8594 23.8438 23.9688 24.1875 24.2188 24.1875 24.1719 24.1563 24.1406 24.125 24.1094 24.0781 24.0625 24.0469 24.0313 24.0156 24 23.9844 23.5313 23.5156 23.5 23.4844 23.4688 23.4531 23.4375 23.4219 23.4219 23.4063 23.3906 23.375 23.5156 23.7656 23.75 23.75 23.7344 23.7188 23.7031 23.6875 23.6719 23.6719 23.6563 23.6406 23.625 23.625 23.6094 23.5938 23.5781 23.1563 23.1406 23.125 23.125 23.1094 23.0938 23.0938 23.0781 23.0781 23.4531 23.4688 23.4688 23.4531 23.4531 23.4375 23.4375 23.4219 23.4219 23.4063 23.4063 23.3906 23.3906 23.3906 23.375 23.375 22.9531 22.9375 22.9375 22.9375 22.9219 22.9219 22.9219 22.9063 22.9063 22.9063 22.9063 22.8906 22.8906 23.0313 23.0313 23.0313 23.0156 23.0156 23.0156 23.0156 23.0156 23.0156 23.0156 23.0156 23 23 23 23 23 23 23 23 23 23 23 23 23 23 23 23.0156 23.0156 23.0156 23.0156 23.0156 23.0156 23.0156 23.0156 23.0313 23.0313 23.0313 23.0313 23.0469 23.0469 23.0469 23.0469 23.0625 23.0625 23.0625 23.0625 23.0781 23.0781 23.0781 23.0938 23.0938 23.1094 23.1094 23.1094 23.125 23.125 23.1406 23.1406 23.1406 23.1563 23.1563 23.0313 23.0313 23.0469 23.0469 23.0625 23.0625 23.0781 23.0781 23.0938 23.1094 23.1094 23.125 23.5469 23.5625 23.5781 23.5781 23.5938 23.6094 23.6094 23.625 23.6406 23.6406 23.6563 23.6719 23.6875 23.6875 23.7031 23.7188 23.7344 23.5 23.3281 23.3438 23.3594 23.375 23.375 23.3906 23.4063 23.4219 23.4375 23.4531 23.8906 23.9063 23.9219 23.9375 23.9531 23.9688 23.9844 24 24.0156 24.0313 24.0469 24.0625 24.0781 24.0938 24.1094 24.125 24.0781 23.875 23.75 23.7656 23.7813 23.7969 23.8125 23.8281 23.8438 23.8594 23.8906 23.9063 23.9219 23.9375 23.9531 23.9688 65504 65504 65504 65504 65504 65504 65504 65504 65504 65504 65504 65504 65504 65504 65504 65504 65504 65504 65504 65504 65504 65504 65504 65504 65504 65504 65504 65504 65504 65504 65504 65504 65504 65504
65504 65504 65504 65504 65504 65504 65504 65504 65504 65504 65504 65504 65504 65504 65504 65504 65504 65504 65504 65504 65504 65504 65504 65504 65504 65504 65504 65504 65504 28.8906 28.8438 28.7969 28.75 28.7031 28.6719 28.625 28.5781 28.5313 28.4844 28.4531 28.4063 28.4531 28.5313 28.6094 28.6875 28.7031 28.6563 28.625 28.5781 28.5313 28.5 28.4531 28.4063 28.375 28.3281 28.2813 27.7344 27.7031 27.6563 27.6094 27.5781 27.5313 27.5 27.4531 27.4219 27.4063 27.5 27.5938 27.6875 27.7188 27.6719 27.6406 27.5938 27.5625 27.5156 27.4844 27.4375 27.4063 27.375 27.3281 27.2969 26.7656 26.7344 26.6875 26.6563 26.625 26.5781 26.5469 26.5156 26.4688 26.4375 26.4063 26.4688 26.5 26.4688 26.4375 26.3906 26.3594 26.3281 26.2969 26.25 26.2188 26.1875 26.1563 26.125 26.0938 26.0625 26.0156 25.9844 25.9531 25.9219 25.8906 25.8438 25.8125 25.7813 25.75 25.7188 25.6875 25.6563 25.625 25.6094 25.5781 25.5469 25.5156 25.4844 25.4531 25.4219 25.3906 25.3594 25.3281 25.3125 25.2813 25.25 25.2188 25.1875 25.1563 25.1406 25.1094 25.0781 25.0469 25.0156 25 24.9688 24.9375 24.9063 24.8906 24.8594 24.8281 24.8125 24.625 24.5938 24.5781 24.5469 24.5313 24.5 24.4688 24.4531 24.4219 24.4063 24.375 24.3594 24.375 24.5625 24.7188 24.7031 24.6719 24.6563 24.625 24.6094 24.5938 24.5625 24.5469 24.5156 24.5 24.4688 24.4531 24.4375 23.9688 23.9531 23.9375 23.9063 23.8906 23.875 23.8594 23.8281 23.8125 23.9375 24.1719 24.1875 24.1719 24.1563 24.1406 24.1094 24.0938 24.0781 24.0625 24.0469 24.0313 24.0156 24 23.9844 23.9531 23.5156 23.5 23.4844 23.4688 23.4531 23.4375 23.4219 23.4063 23.3906 23.375 23.3594 23.3438 23.5 23.75 23.7344 23.7188 23.7031 23.6875 23.6875 23.6719 23.6563 23.6406 23.625 23.625 23.6094 23.5938 23.5781 23.5781 23.5625 23.125 23.125 23.1094 23.0938 23.0938 23.0781 23.0625 23.0625 23.0469 23.4375 23.4531 23.4375 23.4375 23.4219 23.4219 23.4063 23.4063 23.3906 23.3906 23.375 23.375 23.375 23.3594 23.3594 23.3438 22.9219 22.9219 22.9219 22.9063 22.9063 22.9063 22.8906 22.8906 22.8906 22.875 22.875 22.875 22.875 23.0156 23 23 23 23 23 23 22.9844 22.9844 22.9844 22.9844 22.9844 22.9844 22.9844 22.9844 22.9844 22.9844 22.9844 22.9844 22.9844 22.9844 22.9844 22.9844 22.9844 22.9844 22.9844 22.9844 22.9844 22.9844 22.9844 23 23 23 23 23 23 23.0156 23.0156 23.0156 23.0156 23.0313 23.0313 23.0313 23.0313 23.0469 23.0469 23.0469 23.0625 23.0625 23.0625 23.0781 23.0781 23.0938 23.0938 23.0938 23.1094 23.1094 23.125 23.125 23.1406 23.1406 23 23.0156 23.0156 23.0313 23.0313 23.0469 23.0469 23.0625 23.0781 23.0781 23.0938 23.0938 23.5313 23.5469 23.5469 23.5625 23.5781 23.5781 23.5938 23.6094 23.6094 23.625 23.6406 23.6563 23.6563 23.6719 23.6875 23.7031 23.7031 23.4688 23.3125 23.3281 23.3438 23.3438 23.3594 23.375 23.3906 23.4063 23.4219 23.4375 23.875 23.8906 23.9063 23.9219 23.9375 23.9531 23.9688 23.9844 24 24.0156 24.0313 24.0469 24.0625 24.0781 24.0938 24.1094 24.0625 23.8438 23.7188 23.75 23.7656 23.7813 23.7969 23.8125 23.8281 23.8438 23.8594 23.8906 23.9063 23.9219 23.9375 23.9531 65504 65504 65504 65504 65504 65504 65504 65504 65504 65504 65504 65504 65504 65504 65504 65504 65504 65504 65504 65504 65504 65504 65504 65504 65504 65504 65504 65504 65504 65504 65504 65504 65504 65504
65504 65504 65504 65504 65504 65504 65504 65504 65504 65504 65504 65504 65504 65504 65504 65504 65504 65504 65504 65504 65504 65504 65504 65504 65504 65504 65504 65504 65504 28.875 28.8281 28.7813 28.7344 28.6875 28.6406 28.6094 28.5625 28.5156 28.4688 28.4375 28.3906 28.4219 28.5 28.5938 28.6719 28.6875 28.6406 28.6094 28.5625 28.5156 28.4688 28.4375 28.3906 28.3438 28.3125 28.2656 27.7188 27.6719 27.6406 27.5938 27.5625 27.5156 27.4844 27.4375 27.3906 27.375 27.4688 27.5625 27.6563 27.7031 27.6563 27.625 27.5781 27.5469 27.5 27.4688 27.4219 27.3906 27.3438 27.3125 27.2656 26.75 26.7188 26.6719 26.6406 26.5938 26.5625 26.5313 26.5 26.4531 26.4219 26.3906 26.4375 26.4844 26.4531 26.4063 26.375 26.3438 26.3125 26.2656 26.2344 26.2031 26.1719 26.1406 26.1094 26.0625 26.0313 26 25.9688 25.9375 25.9063 25.875 25.8281 25.7969 25.7656 25.7344 25.7031 25.6719 25.6406 25.6094 25.5781 25.5625 25.5313 25.5 25.4688 25.4375 25.4063 25.375 25.3438 25.3125 25.2813 25.25 25.2344 25.2031 25.1719 25.1406 25.1094 25.0781 25.0625 25.0313 25 24.9688 24.9531 24.9219 24.8906 24.8594 24.8438 24.8125 24.7813 24.6094 24.5781 24.5469 24.5313 24.5 24.4844 24.4531 24.4219 24.4063 24.375 24.3594 24.3281 24.3594 24.5313 24.7031 24.6875 24.6563 24.6406 24.6094 24.5938 24.5625 24.5469 24.5156 24.5 24.4844 24.4531 24.4375 24.4063 23.9531 23.9375 23.9063 23.8906 23.875 23.8594 23.8281 23.8125 23.7969 23.9063 24.1406 24.1719 24.1563 24.125 24.1094 24.0938 24.0781 24.0625 24.0469 24.0313 24 23.9844 23.9688 23.9531 23.9375 23.5 23.4844 23.4688 23.4531 23.4375 23.4219 23.4063 23.3906 23.375 23.3594 23.3438 23.3281 23.4688 23.7188 23.7188 23.7031 23.6875 23.6719 23.6563 23.6406 23.6406 23.625 23.6094 23.5938 23.5781 23.5781 23.5625 23.5469 23.5469 23.1094 23.0938 23.0938 23.0781 23.0625 23.0625 23.0469 23.0313 23.0313 23.4063 23.4375 23.4219 23.4219 23.4063 23.3906 23.3906 23.375 23.375 23.375 23.3594 23.3594 23.3438 23.3438 23.3281 23.3281 22.9063 22.8906 22.8906 22.8906 22.875 22.875 22.875 22.875 22.8594 22.8594 22.8594 22.8438 22.8594 22.9844 22.9844 22.9844 22.9844 22.9844 22.9688 22.9688 22.9688 22.9688 22.9688 22.9688 22.9688 22.9688 22.9688 22.9531 22.9531 22.9531 22.9531 22.9531 22.9531 22.9531 22.9531 22.9531 22.9688 22.9688 22.9688 22.9688 22.9688 22.9688 22.9688 22.9688 22.9688 22.9844 22.9844 22.9844 22.9844 22.9844 23 23 23 23 23.0156 23.0156 23.0156 23.0156 23.0313 23.0313 23.0313 23.0469 23.0469 23.0469 23.0625 23.0625 23.0781 23.0781 23.0781 23.0938 23.0938 23.1094 23.1094 23.125 22.9844 22.9844 23 23 23.0156 23.0313 23.0313 23.0469 23.0469 23.0625 23.0625 23.0781 23.5156 23.5156 23.5313 23.5469 23.5469 23.5625 23.5781 23.5781 23.5938 23.6094 23.6094 23.625 23.6406 23.6563 23.6719 23.6719 23.6875 23.4375 23.2969 23.2969 23.3125 23.3281 23.3438 23.3594 23.375 23.3906 23.3906 23.4063 23.8594 23.8594 23.875 23.8906 23.9063 23.9219 23.9375 23.9531 23.9688 23.9844 24 24.0156 24.0313 24.0469 24.0625 24.0938 24.0313 23.8125 23.7031 23.7188 23.7344 23.75 23.7813 23.7969 23.8125 23.8281 23.8438 23.8594 23.875 23.9063 23.9219 23.9375 65504 65504 65504 65504 65504 65504 65504 65504 65504 65504 65504 65504 65504 65504 65504 65504 65504 65504 65504 65504 65504 65504 65504 65504 65504 65504 65504 65504 65504 65504 65504 65504 65504 65504
65504 65504 65504 65504 65504 65504 65504 65504 65504 65504 65504 65504 65504 65504 65504 65504 65504 65504 65504 65504 65504 65504 65504 65504 65504 65504 65504 65504 65504 28.8438 28.8125 28.7656 28.7188 28.6719 28.625 28.5938 28.5469 28.5 28.4531 28.4063 28.375 28.4063 28.4844 28.5625 28.6563 28.6719 28.625 28.5781 28.5469 28.5 28.4531 28.4219 28.375 28.3281 28.2969 28.25 27.7031 27.6563 27.625 27.5781 27.5469 27.5 27.4531 27.4219 27.375 27.3594 27.4531 27.5469 27.6406 27.6875 27.6406 27.5938 27.5625 27.5156 27.4844 27.4531 27.4063 27.375 27.3281 27.2969 27.25 26.7344 26.6875 26.6563 26.625 26.5781 26.5469 26.5156 26.4688 26.4375 26.4063 26.3594 26.4219 26.4688 26.4219 26.3906 26.3594 26.3281 26.2813 26.25 26.2188 26.1875 26.1563 26.1094 26.0781 26.0469 26.0156 25.9844 25.9531 25.9219 25.8906 25.8438 25.8125 25.7813 25.7344 25.7031 25.6719 25.6406 25.6094 25.5781 25.5625 25.5313 25.5 25.4688 25.4375 25.4063 25.3906 25.3594 25.3281 25.2969 25.2656 25.2344 25.2031 25.1719 25.1563 25.125 25.0938 25.0625 25.0313 25.0156 24.9844 24.9531 24.9219 24.9063 24.875 24.8438 24.8125 24.7969 24.7656 24.5781 24.5625 24.5313 24.5156 24.4844 24.4531 24.4375 24.4063 24.3906 24.3594 24.3281 24.3125 24.3281 24.5156 24.6875 24.6563 24.6406 24.6094 24.5938 24.5625 24.5469 24.5156 24.5 24.4844 24.4531 24.4375 24.4063 24.3906 23.9375 23.9063 23.8906 23.875 23.8594 23.8281 23.8125 23.7969 23.7656 23.8906 24.125 24.1406 24.125 24.1094 24.0938 24.0781 24.0625 24.0313 24.0156 24 23.9844 23.9688 23.9531 23.9375 23.9219 23.4688 23.4531 23.4375 23.4219 23.4063 23.3906 23.375 23.3594 23.3438 23.3281 23.3281 23.3125 23.4531 23.7031 23.6875 23.6719 23.6563 23.6563 23.6406 23.625 23.6094 23.5938 23.5938 23.5781 23.5625 23.5469 23.5469 23.5313 23.5156 23.0938 23.0781 23.0625 23.0625 23.0469 23.0313 23.0313 23.0156 23.0156 23.3906 23.4063 23.4063 23.3906 23.3906 23.375 23.375 23.3594 23.3594 23.3438 23.3438 23.3281 23.3281 23.3125 23.3125 23.3125 22.875 22.875 22.875 22.8594 22.8594 22.8594 22.8438 22.8438 22.8438 22.8438 22.8281 22.8281 22.8281 22.9688 22.9688 22.9531 22.9531 22.9531 22.9531 22.9531 22.9531 22.9531 22.9375 22.9375 22.9375 22.9375 22.9375 22.9375 22.9375 22.9375 22.9375 22.9375 22.9375 22.9375 22.9375 22.9375 22.9375 22.9375 22.9375 22.9375 22.9375 22.9531 22.9531 22.9531 22.9531 22.9531 22.9531 22.9688 22.9688 22.9688 22.9688 22.9688 22.9844 22.9844 22.9844 22.9844 23 23 23 23.0156 23.0156 23.0156 23.0313 23.0313 23.0313 23.0469 23.0469 23.0625 23.0625 23.0781 23.0781 23.0781 23.0938 23.0938 22.9688 22.9688 22.9844 22.9844 23 23 23.0156 23.0156 23.0313 23.0469 23.0469 23.0625 23.4844 23.5 23.5156 23.5156 23.5313 23.5469 23.5469 23.5625 23.5781 23.5781 23.5938 23.6094 23.625 23.625 23.6406 23.6563 23.6719 23.4219 23.2656 23.2813 23.2969 23.3125 23.3281 23.3438 23.3438 23.3594 23.375 23.3906 23.8281 23.8438 23.8594 23.875 23.8906 23.9063 23.9219 23.9375 23.9531 23.9688 23.9844 24 24.0156 24.0313 24.0469 24.0625 24 23.7969 23.6875 23.7031 23.7188 23.7344 23.75 23.7656 23.7969 23.8125 23.8281 23.8438 23.8594 23.875 23.9063 23.9219 65504 65504 65504 65504 65504 65504 65504 65504 65504 65504 65504 65504 65504 65504 65504 65504 65504 65504 65504 65504 65504 65504 65504 65504 65504 65504 65504 65504 65504 65504 65504 65504 65504 65504
65504 65504 65504 65504 65504 65504 65504 65504 65504 65504 65504 65504 65504 65504 65504 65504 65504 65504 65504 65504 65504 65504 65504 65504 65504 65504 65504 65504 65504 28.8281 28.7969 28.75 28.7031 28.6563 28.6094 28.5625 28.5313 28.4844 28.4375 28.3906 28.3594 28.375 28.4688 28.5469 28.625 28.6563 28.6094 28.5625 28.5313 28.4844 28.4375 28.3906 28.3594 28.3125 28.2656 28.2344 27.6875 27.6406 27.6094 27.5625 27.5156 27.4844 27.4375 27.4063 27.3594 27.3281 27.4219 27.5156 27.6094 27.6563 27.625 27.5781 27.5469 27.5 27.4688 27.4219 27.3906 27.3438 27.3125 27.2813 27.2344 26.7031 26.6719 26.6406 26.5938 26.5625 26.5313 26.4844 26.4531 26.4219 26.3906 26.3438 26.3906 26.4375 26.4063 26.375 26.3438 26.2969 26.2656 26.2344 26.2031 26.1719 26.125 26.0938 26.0625 26.0313 26 25.9688 25.9375 25.8906 25.8594 25.8281 25.7813 25.75 25.7188 25.6875 25.6563 25.625 25.5938 25.5625 25.5469 25.5156 25.4844 25.4531 25.4219 25.3906 25.3594 25.3281 25.2969 25.2813 25.25 25.2188 25.1875 25.1563 25.125 25.0938 25.0781 25.0469 25.0156 24.9844 24.9531 24.9375 24.9063 24.875 24.8438 24.8281 24.7969 24.7656 24.75 24.5625 24.5313 24.5156 24.4844 24.4688 24.4375 24.4063 24.3906 24.3594 24.3438 24.3125 24.2969 24.2969 24.4844 24.6563 24.6406 24.6094 24.5938 24.5625 24.5469 24.5156 24.5 24.4844 24.4531 24.4375 24.4063 24.3906 24.375 23.9063 23.8906 23.875 23.8438 23.8281 23.8125 23.7969 23.7656 23.75 23.8594 24.0938 24.125 24.1094 24.0938 24.0781 24.0469 24.0313 24.0156 24 23.9844 23.9688 23.9531 23.9219 23.9063 23.8906 23.4531 23.4375 23.4219 23.4063 23.3906 23.375 23.3594 23.3438 23.3281 23.3125 23.2969 23.2813 23.4219 23.6875 23.6719 23.6563 23.6406 23.625 23.6094 23.6094 23.5938 23.5781 23.5625 23.5469 23.5469 23.5313 23.5156 23.5 23.5 23.0625 23.0469 23.0469 23.0313 23.0313 23.0156 23 23 22.9844 23.3594 23.3906 23.375 23.375 23.3594 23.3594 23.3438 23.3438 23.3281 23.3281 23.3125 23.3125 23.2969 23.2969 23.2969 23.2813 22.8594 22.8594 22.8438 22.8438 22.8438 22.8281 22.8281 22.8281 22.8281 22.8125 22.8125 22.8125 22.8125 22.9531 22.9375 22.9375 22.9375 22.9375 22.9375 22.9219 22.9219 22.9219 22.9219 22.9219 22.9219 22.9219 22.9219 22.9219 22.9219 22.9219 22.9219 22.9219 22.9219 22.9219 22.9219 22.9219 22.9219 22.9219 22.9219 22.9219 22.9219 22.9219 22.9219 22.9375 22.9375 22.9375 22.9375 22.9375 22.9375 22.9531 22.9531 22.9531 22.9531 22.9688 22.9688 22.9688 22.9688 22.9844 22.9844 22.9844 23 23 23 23.0156 23.0156 23.0313 23.0313 23.0313 23.0469 23.0469 23.0625 23.0625 23.0781 23.0781 22.9375 22.9531 22.9531 22.9688 22.9688 22.9844 22.9844 23 23.0156 23.0156 23.0313 23.0313 23.4688 23.4844 23.1563 23.1719 23.1719 23.1875 23.2031 23.2031 23.2188 23.2344 23.25 23.25 23.2656 23.6094 23.625 23.6406 23.6563 23.3906 23.25 23.2656 23.2813 23.2969 23.2969 23.3125 23.3281 23.3438 23.3594 23.375 23.8125 23.8281 23.8438 23.8594 23.875 23.8906 23.9063 23.9219 23.9375 23.9531 23.9688 23.9844 24 24.0156 24.0313 24.0469 23.9844 23.7656 23.6719 23.6875 23.7031 23.7188 23.7344 23.75 23.7656 23.7969 23.8125 23.8281 23.8438 23.8594 23.875 23.9063 65504 65504 65504 65504 65504 65504 65504 65504 65504 65504 65504 65504 65504 65504 65504 65504 65504 65504 65504 65504 65504 65504 65504 65504 65504 65504 65504 65504 65504 65504 65504 65504 65504 65504
65504 65504 65504 65504 65504 65504 65504 65504 65504 65504 65504 65504 65504 65504 65504 65504 65504 65504 65504 65504 65504 65504 65504 65504 65504 65504 65504 65504 65504 28.8125 28.7813 28.7344 28.6875 28.6406 28.5938 28.5469 28.5156 28.4688 28.4219 28.375 28.3438 28.3594 28.4375 28.5156 28.6094 28.6406 28.5938 28.5469 28.5 28.4688 28.4219 28.375 28.3438 28.2969 28.25 28.2188 28.1719 27.625 27.5781 27.5469 27.5 27.4688 27.4219 27.3906 27.3438 27.3125 27.4063 27.5 27.5938 27.6406 27.6094 27.5625 27.5313 27.4844 27.4531 27.4063 27.375 27.3281 27.2969 27.25 27.2188 26.6875 26.6563 26.625 26.5781 26.5469 26.5156 26.4688 26.4375 26.4063 26.3594 26.3281 26.375 26.4219 26.3906 26.3594 26.3125 26.2813 26.25 26.2188 26.1875 26.1406 26.1094 26.0781 26.0469 26.0156 25.9844 25.9375 25.9063 25.875 25.8438 25.8125 25.7656 25.7344 25.7031 25.6719 25.6406 25.6094 25.5781 25.5469 25.5313 25.5 25.4688 25.4375 25.4063 25.375 25.3438 25.3125 25.2813 25.25 25.2188 25.2031 25.1719 25.1406 25.1094 25.0781 25.0469 25.0313 25 24.9688 24.9375 24.9063 24.8906 24.8594 24.8281 24.7969 24.7813 24.75 24.7188 24.5469 24.5156 24.5 24.4688 24.4375 24.4219 24.3906 24.375 24.3438 24.3125 24.2969 24.2656 24.2813 24.4531 24.6406 24.625 24.5938 24.5781 24.5469 24.5313 24.5 24.4844 24.4531 24.4375 24.4063 24.3906 24.375 24.3438 23.8906 23.875 23.8438 23.8281 23.8125 23.7969 23.7656 23.75 23.7344 23.8438 24.0625 24.1094 24.0938 24.0625 24.0469 24.0313 24.0156 24 23.9844 23.9531 23.9375 23.9219 23.9063 23.8906 23.875 23.4375 23.4219 23.4063 23.3906 23.375 23.3594 23.3438 23.3281 23.3125 23.2969 23.2813 23.2656 23.3906 23.6563 23.6406 23.6406 23.625 23.6094 23.5938 23.5781 23.5625 23.5625 23.5469 23.5313 23.5156 23.5156 23.5 23.4844 23.4688 23.0469 23.0313 23.0156 23.0156 23 23 22.9844 22.9688 22.9688 23.3281 23.3594 23.3594 23.3438 23.3438 23.3281 23.3281 23.3125 23.3125 23.2969 23.2969 23.2813 23.2813 23.2813 23.2656 23.2656 22.8438 22.8281 22.8281 22.8281 22.8125 22.8125 22.8125 22.7969 22.7969 22.7969 22.7969 22.7813 22.7969 22.9219 22.9219 22.9219 22.9219 22.9063 22.9063 22.9063 22.9063 22.9063 22.9063 22.9063 22.9063 22.8906 22.8906 22.8906 22.8906 22.8906 22.8906 22.8906 22.8906 22.8906 22.8906 22.8906 22.8906 22.8906 22.9063 22.9063 22.9063 22.9063 22.9063 22.9063 22.9063 22.9063 22.9219 22.9219 22.9219 22.9219 22.9219 22.9375 22.9375 22.9375 22.9375 22.9531 22.9531 22.9531 22.9688 22.9688 22.9688 22.9844 22.9844 22.9844 23 23 23.0156 23.0156 23.0156 23.0313 23.0313 23.0469 23.0469 23.0625 22.9219 22.9219 22.9375 22.9531 22.9531 22.9688 22.9688 22.9844 22.9844 23 23.0156 23.0156 23.4531 23.2188 23.1406 23.1406 23.1563 23.1719 23.1719 23.1875 23.2031 23.2188 23.2188 23.2344 23.25 23.5938 23.6094 23.6094 23.625 23.3594 23.2344 23.25 23.25 23.2656 23.2813 23.2969 23.3125 23.3281 23.3438 23.3594 23.7969 23.8125 23.8281 23.8438 23.8438 23.8594 23.875 23.8906 23.9063 23.9219 23.9375 23.9688 23.9844 24 24.0156 24.0313 23.9531 23.75 23.6406 23.6719 23.6875 23.7031 23.7188 23.7344 23.75 23.7656 23.7813 23.8125 23.8281 23.8438 23.8594 23.875 65504 65504 65504 65504 65504 65504 65504 65504 65504 65504 65504 65504 65504 65504 65504 65504 65504 65504 65504 65504 65504 65504 65504 65504 65504 65504 65504 65504 65504 65504 65504 65504 65504 65504
65504 65504 65504 65504 65504 65504 65504 65504 65504 65504 65504 65504 65504 65504 65504 65504 65504 65504 65504 65504 65504 65504 65504 65504 65504 65504 65504 65504 65504 28.7969 28.75 28.7188 28.6719 28.625 28.5781 28.5313 28.5 28.4531 28.4063 28.3594 28.3125 28.3438 28.4219 28.5 28.5781 28.625 28.5781 28.5313 28.4844 28.4531 28.4063 28.3594 28.3125 28.2813 28.2344 28.1875 28.1563 27.6094 27.5625 27.5313 27.4844 27.4531 27.4063 27.3594 27.3281 27.2813 27.375 27.4688 27.5625 27.625 27.5781 27.5469 27.5 27.4688 27.4219 27.3906 27.3438 27.3125 27.2813 27.2344 27.2031 26.6719 26.6406 26.5938 26.5625 26.5313 26.4844 26.4531 26.4219 26.375 26.3438 26.3125 26.3438 26.4063 26.375 26.3281 26.2969 26.2656 26.2344 26.2031 26.1563 26.125 26.0938 26.0625 26.0313 25.9844 25.9531 25.9219 25.8906 25.8594 25.8281 25.7969 25.7656 25.7344 25.7031 25.6719 25.625 25.5938 25.5625 25.5313 25.5 25.4688 25.4375 25.4219 25.3906 25.3594 25.3281 25.2969 25.2656 25.2344 25.2031 25.1719 25.1406 25.125 25.0938 25.0625 25.0313 25 24.9688 24.9531 24.9219 24.8906 24.8594 24.8438 24.8125 24.7813 24.75 24.7344 24.7031 24.5313 24.5 24.4688 24.4531 24.4219 24.3906 24.375 24.3438 24.3281 24.2969 24.2813 24.25 24.25 24.4375 24.625 24.5938 24.5781 24.5469 24.5313 24.5 24.4844 24.4531 24.4375 24.4219 24.3906 24.375 24.3438 24.3281 23.875 23.8438 23.8281 23.8125 23.7969 23.7656 23.75 23.7344 23.7031 23.8125 24.0469 24.0781 24.0625 24.0469 24.0313 24.0156 23.9844 23.9688 23.9531 23.9375 23.9219 23.9063 23.8906 23.875 23.8594 23.4063 23.3906 23.375 23.3594 23.3438 23.3281 23.3125 23.2969 23.2813 23.2656 23.2656 23.25 23.375 23.6406 23.625 23.6094 23.5938 23.5781 23.5781 23.5625 23.5469 23.5313 23.5156 23.5156 23.5 23.4844 23.4688 23.4688 23.4531 23.0156 23.0156 23 22.9844 22.9844 22.9688 22.9688 22.9531 22.9375 23.3125 23.3438 23.3281 23.3281 23.3125 23.3125 23.2969 23.2969 23.2813 23.2813 23.2656 23.2656 23.2656 23.25 23.25 23.2344 22.8125 22.8125 22.8125 22.7969 22.7969 22.7969 22.7813 22.7813 22.7813 22.7813 22.7656 22.7656 22.7656 22.9063 22.9063 22.8906 22.8906 22.8906 22.8906 22.8906 22.8906 22.875 22.875 22.875 22.875 22.875 22.875 22.875 22.875 22.875 22.875 22.875 22.875 22.875 22.875 22.875 22.875 22.875 22.875 22.875 22.875 22.8906 22.8906 22.8906 22.8906 22.8906 22.8906 22.8906 22.9063 22.9063 22.9063 22.9063 22.9219 22.9219 22.9219 22.9219 22.9375 22.9375 22.9375 22.9531 22.9531 22.9531 22.9688 22.9688 22.9688 22.9844 22.9844 23 23 23.0156 23.0156 23.0156 23.0313 23.0313 22.9063 22.9063 22.9219 22.9219 22.9375 22.9375 22.9531 22.9531 22.9688 22.9844 22.9844 23 23.4219 23.1875 23.1094 23.125 23.1406 23.1406 23.1563 23.1719 23.1875 23.1875 23.2031 23.2188 23.2344 23.5781 23.5781 23.5938 23.6094 23.3438 23.2031 23.2188 23.2344 23.25 23.2656 23.2813 23.2969 23.2969 23.3125 23.3281 23.7656 23.7813 23.7969 23.8125 23.8281 23.8438 23.8594 23.875 23.8906 23.9063 23.9219 23.9375 23.9531 23.9688 23.9844 24.0156 23.9375 23.7188 23.625 23.6406 23.6563 23.6875 23.7031 23.7188 23.7344 23.75 23.7656 23.7813 23.8125 23.8281 23.8438 23.8594 65504 65504 65504 65504 65504 65504 65504 65504 65504 65504 65504 65504 65504 65504 65504 65504 65504 65504 65504 65504 65504 65504 65504 65504 65504 65504 65504 65504 65504 65504 65504 65504 65504 65504
65504 65504 65504 65504 65504 65504 65504 65504 65504 65504 65504 65504 65504 65504 65504 65504 65504 65504 65504 65504 65504 65504 65504 65504 65504 65504 65504 65504 65504 28.7813 28.7344 28.7031 28.6563 28.6094 28.5625 28.5156 28.4844 28.4375 28.3906 28.3438 28.2969 28.3125 28.3906 28.4688 28.5625 28.5938 28.5625 28.5156 28.4688 28.4375 28.3906 28.3438 28.2969 28.2656 28.2188 28.1719 28.1406 27.5938 27.5469 27.5156 27.4688 27.4219 27.3906 27.3438 27.3125 27.2656 27.3594 27.4531 27.5469 27.6094 27.5625 27.5313 27.4844 27.4531 27.4063 27.375 27.3281 27.2969 27.25 27.2188 27.1875 26.6563 26.625 26.5781 26.5469 26.5156 26.4688 26.4375 26.4063 26.3594 26.3281 26.2969 26.3281 26.3906 26.3594 26.3125 26.2813 26.25 26.2188 26.1719 26.1406 26.1094 26.0781 26.0469 26 25.9688 25.9375 25.9063 25.875 25.8438 25.8125 25.7813 25.7344 25.7031 25.6719 25.6406 25.6094 25.5781 25.5469 25.5156 25.4844 25.4531 25.4219 25.3906 25.3594 25.3281 25.2969 25.2813 25.25 25.2188 25.1875 25.1563 25.125 25.0938 25.0625 25.0469 25.0156 24.9844 24.9531 24.9219 24.9063 24.875 24.8438 24.8125 24.7969 24.7656 24.7344 24.7188 24.6875 24.5 24.4844 24.4531 24.4219 24.4063 24.375 24.3594 24.3281 24.2969 24.2813 24.25 24.2344 24.2344 24.4063 24.0781 24.0625 24.0313 24.0156 23.9844 23.9688 23.9375 23.9219 23.9063 23.875 23.8594 23.8281 24.3281 24.3125 23.8438 23.8281 23.8125 23.7813 23.7656 23.75 23.7344 23.7031 23.6875 23.7813 24.0156 24.0625 24.0469 24.0313 24 23.9844 23.9688 23.9531 23.9375 23.9219 23.9063 23.875 23.8594 23.8438 23.8281 23.3906 23.375 23.3594 23.3438 23.3281 23.3125 23.2969 23.2813 23.2656 23.25 23.2344 23.2188 23.3438 23.625 23.6094 23.5938 23.5781 23.5625 23.5469 23.5313 23.5313 23.5156 23.5 23.4844 23.4844 23.4688 23.4531 23.4375 23.4375 23 22.9844 22.9844 22.9688 22.9531 22.9531 22.9375 22.9375 22.9219 23.2813 23.3281 23.3125 23.3125 23.2969 23.2969 23.2813 23.2813 23.2656 23.2656 23.25 23.25 23.2344 23.2344 23.2188 23.2188 22.7969 22.7969 22.7813 22.7813 22.7813 22.7656 22.7656 22.7656 22.75 22.75 22.75 22.75 22.75 22.875 22.875 22.875 22.875 22.875 22.875 22.8594 22.8594 22.8594 22.8594 22.8594 22.8594 22.8594 22.8594 22.8594 22.8594 22.8594 22.8594 22.8594 22.8594 22.8594 22.8594 22.8594 22.8594 22.8594 22.8594 22.8594 22.8594 22.8594 22.8594 22.8594 22.875 22.875 22.875 22.875 22.875 22.8906 22.8906 22.8906 22.8906 22.9063 22.9063 22.9063 22.9063 22.9219 22.9219 22.9219 22.9375 22.9375 22.9375 22.9531 22.9531 22.9688 22.9688 22.9688 22.9844 22.9844 23 23 23.0156 23.0156 22.875 22.8906 22.8906 22.9063 22.9063 22.9219 22.9375 22.9375 22.9531 22.9531 22.9688 22.9844 23.4063 23.1563 23.0938 23.1094 23.1094 23.125 23.1406 23.1563 23.1563 23.1719 23.1875 23.2031 23.2031 23.5469 23.5625 23.5781 23.5938 23.3125 23.1875 23.2031 23.2188 23.2344 23.25 23.25 23.2656 23.2813 23.2969 23.3125 23.75 23.7656 23.7813 23.7969 23.8125 23.8281 23.8438 23.8594 23.875 23.8906 23.9063 23.9219 23.9375 23.9531 23.9688 23.9844 23.9063 23.7031 23.6094 23.625 23.6406 23.6563 23.6719 23.7031 23.7188 23.7344 23.75 23.7656 23.7813 23.8125 23.8281 23.8438 65504 65504 65504 65504 65504 65504 65504 65504 65504 65504 65504 65504 65504 65504 65504 65504 65504 65504 65504 65504 65504 65504 65504 65504 65504 65504 65504 65504 65504 65504 65504 65504 65504 65504
65504 65504 65504 65504 65504 65504 65504 65504 65504 65504 65504 65504 65504 65504 65504 65504 65504 65504 65504 65504 65504 65504 65504 65504 65504 65504 65504 65504 65504 28.7656 28.7188 28.6875 28.6406 28.5938 28.5469 28.5 28.4531 28.4219 28.375 28.3281 28.2813 28.2969 28.375 28.4531 28.5313 28.5781 28.5469 28.5 28.4531 28.4063 28.375 28.3281 28.2813 28.25 28.2031 28.1563 28.125 27.5781 27.5313 27.5 27.4531 27.4063 27.375 27.3281 27.2969 27.25 27.3281 27.4219 27.5156 27.5938 27.5469 27.5156 27.4688 27.4375 27.3906 27.3594 27.3125 27.2813 27.2344 27.2031 27.1563 26.6406 26.5938 26.5625 26.5313 26.4844 26.4531 26.4219 26.375 26.3438 26.3125 26.2813 26.2969 26.375 26.3281 26.2969 26.2656 26.2344 26.1875 26.1563 26.125 26.0938 26.0625 26.0156 25.9844 25.9531 25.9219 25.8906 25.8594 25.8281 25.7813 25.75 25.7188 25.6875 25.6563 25.625 25.5938 25.5625 25.5313 25.5 25.4688 25.4375 25.4063 25.375 25.3438 25.3125 25.2813 25.25 25.2188 25.2031 25.1719 25.1406 25.1094 25.0781 25.0469 25.0156 25 24.9688 24.9375 24.9063 24.875 24.8594 24.8281 24.7969 24.7656 24.75 24.7188 24.6875 24.6719 24.4844 24.4531 24.4375 24.4063 24.375 24.3594 24.3281 24.3125 24.2813 24.2656 24.2344 24.2031 24.2031 24.3906 24.0625 24.0313 24.0156 23.9844 23.9688 23.9531 23.9219 23.9063 23.875 23.8594 23.8438 23.8125 23.9219 24.2813 23.8281 23.8125 23.7813 23.7656 23.75 23.7344 23.7031 23.6875 23.6719 23.7656 24 24.0469 24.0313 24 23.9844 23.9688 23.9531 23.9375 23.9063 23.8906 23.875 23.8594 23.8438 23.8281 23.8125 23.375 23.3594 23.3438 23.3281 23.3125 23.2969 23.2813 23.2656 23.25 23.2344 23.2188 23.2031 23.3281 23.5938 23.5781 23.5625 23.5625 23.5469 23.5313 23.5156 23.5 23.4844 23.4844 23.4688 23.4531 23.4375 23.4375 23.4219 23.4063 22.9844 22.9688 22.9531 22.9531 22.9375 22.9375 22.9219 22.9063 22.9063 23.2656 23.2969 23.2969 23.2813 23.2813 23.2656 23.2656 23.25 23.25 23.2344 23.2344 23.2188 23.2188 23.2031 23.2031 23.2031 22.7813 22.7656 22.7656 22.7656 22.75 22.75 22.75 22.7344 22.7344 22.7344 22.7344 22.7188 22.7344 22.8594 22.8594 22.8594 22.8438 22.8438 22.8438 22.8438 22.8438 22.8438 22.8438 22.8438 22.8281 22.8281 22.8281 22.8281 22.8281 22.8281 22.8281 22.8281 22.8281 22.8281 22.8281 22.8281 22.8281 22.8281 22.8438 22.8438 22.8438 22.8438 22.8438 22.8438 22.8438 22.8438 22.8594 22.8594 22.8594 22.8594 22.8594 22.875 22.875 22.875 22.8906 22.8906 22.8906 22.8906 22.9063 22.9063 22.9063 22.9219 22.9219 22.9219 22.9375 22.9375 22.9531 22.9531 22.9688 22.9688 22.9688 22.9844 22.9844 23 22.8594 22.875 22.875 22.8906 22.8906 22.9063 22.9063 22.9219 22.9219 22.9375 22.9531 22.9531 23.3906 23.1406 23.0781 23.0938 23.0938 23.1094 23.125 23.125 23.1406 23.1563 23.1563 23.1719 23.1875 23.5313 23.5469 23.5625 23.5625 23.2813 23.1719 23.1875 23.2031 23.2188 23.2188 23.2344 23.25 23.2656 23.2813 23.2969 23.7344 23.75 23.7656 23.7813 23.7969 23.8125 23.8281 23.8438 23.8594 23.875 23.8906 23.9063 23.9219 23.9375 23.9531 23.9688 23.875 23.6719 23.5938 23.6094 23.625 23.6406 23.6563 23.6719 23.7031 23.7188 23.7344 23.75 23.7656 23.7813 23.8125 23.8281 65504 65504 65504 65504 65504 65504 65504 65504 65504 65504 65504 65504 65504 65504 65504 65504 65504 65504 65504 65504 65504 65504 65504 65504 65504 65504 65504 65504 65504 65504 65504 65504 65504 65504
65504 65504 65504 65504 65504 65504 65504 65504 65504 65504 65504 65504 65504 65504 65504 65504 65504 65504 65504 65504 65504 65504 65504 65504 65504 65504 65504 65504 65504 28.75 28.7031 28.6719 28.625 28.5781 28.5313 28.4844 28.4375 28.4063 28.3594 28.3125 28.2656 28.2656 28.3438 28.4375 28.5156 28.5625 28.5313 28.4844 28.4375 28.3906 28.3594 28.3125 28.2656 28.2188 28.1875 28.1406 28.0938 27.5625 27.5156 27.4688 27.4375 27.3906 27.3594 27.3125 27.2813 27.2344 27.3125 27.4063 27.5 27.5781 27.5313 27.5 27.4531 27.4063 27.375 27.3438 27.2969 27.2656 27.2188 27.1875 27.1406 26.625 26.5781 26.5469 26.5156 26.4688 26.4375 26.4063 26.3594 26.3281 26.2969 26.25 26.2813 26.3438 26.3125 26.2813 26.25 26.2031 26.1719 26.1406 26.1094 26.0781 26.0313 26 25.9688 25.9375 25.9063 25.875 25.8281 25.7969 25.7656 25.7344 25.7031 25.6719 25.6406 25.6094 25.5781 25.5469 25.5156 25.4844 25.4531 25.4219 25.3906 25.3594 25.3281 25.2969 25.2656 25.2344 25.2031 25.1719 25.1406 25.125 25.0938 25.0625 25.0313 25 24.9688 24.9375 24.9219 24.8906 24.8594 24.8281 24.8125 24.7813 24.75 24.7188 24.7031 24.6719 24.6406 24.4688 24.4375 24.4063 24.3906 24.3594 24.3438 24.3125 24.2813 24.2656 24.2344 24.2188 24.1875 24.1875 24.3594 24.0469 24.0156 24 23.9688 23.9531 23.9219 23.9063 23.875 23.8594 23.8438 23.8125 23.7969 23.9063 24.1094 23.8125 23.7969 23.7656 23.75 23.7344 23.7031 23.6875 23.6719 23.6563 23.7344 23.9688 24.0156 24 23.9844 23.9688 23.9531 23.9219 23.9063 23.8906 23.875 23.8594 23.8438 23.8281 23.8125 23.7969 23.3438 23.3281 23.3125 23.2969 23.2813 23.2656 23.25 23.2344 23.2188 23.2031 23.2031 23.1875 23.2969 23.5781 23.5625 23.5469 23.5313 23.5156 23.5156 23.5 23.4844 23.4688 23.4531 23.4531 23.4375 23.4219 23.4063 23.4063 23.3906 22.9531 22.9531 22.9375 22.9219 22.9219 22.9063 22.9063 22.8906 22.875 23.2344 23.2813 23.2656 23.2656 23.25 23.25 23.2344 23.2344 23.2188 23.2188 23.2031 23.2031 23.2031 23.1875 23.1875 23.1719 22.75 22.75 22.75 22.7344 22.7344 22.7344 22.7188 22.7188 22.7188 22.7188 22.7031 22.7031 22.7188 22.8438 22.8438 22.8281 22.8281 22.8281 22.8281 22.8281 22.8281 22.8125 22.8125 22.8125 22.8125 22.8125 22.8125 22.8125 22.8125 22.8125 22.8125 22.8125 22.8125 22.8125 22.8125 22.8125 22.8125 22.8125 22.8125 22.8125 22.8125 22.8281 22.8281 22.8281 22.8281 22.8281 22.8281 22.8438 22.8438 22.8438 22.8438 22.8438 22.8594 22.8594 22.8594 22.8594 22.875 22.875 22.875 22.8906 22.8906 22.8906 22.9063 22.9063 22.9219 22.9219 22.9219 22.9375 22.9375 22.9531 22.9531 22.9688 22.9688 22.9844 22.8438 22.8438 22.8594 22.8594 22.875 22.875 22.8906 22.9063 22.9063 22.9219 22.9219 22.9375 23.3594 23.1094 23.0625 23.0625 23.0781 23.0938 23.0938 23.1094 23.125 23.1406 23.1406 23.1563 23.1719 23.5156 23.5313 23.5313 23.5469 23.2656 23.1563 23.1719 23.1719 23.1875 23.2031 23.2188 23.2344 23.25 23.2656 23.2813 23.7188 23.7344 23.75 23.7656 23.7813 23.7813 23.7969 23.8125 23.8438 23.8594 23.875 23.8906 23.9063 23.9219 23.9375 23.9531 23.8594 23.6406 23.5781 23.5938 23.6094 23.625 23.6406 23.6563 23.6719 23.7031 23.7188 23.7344 23.75 23.7656 23.7813 23.8125 65504 65504 65504 65504 65504 65504 65504 65504 65504 65504 65504 65504 65504 65504 65504 65504 65504 65504 65504 65504 65504 65504 65504 65504 65504 65504 65504 65504 65504 65504 65504 65504 65504 65504
65504 65504 65504 65504 65504 65504 65504 65504 65504 65504 65504 65504 65504 65504 65504 65504 65504 65504 65504 65504 65504 65504 65504 65504 65504 65504 65504 65504 65504 28.7344 28.6875 28.6563 28.6094 28.5625 28.5156 28.4688 28.4219 28.3906 28.3438 28.2969 28.25 28.25 28.3281 28.4063 28.4844 28.5469 28.5 28.4688 28.4219 28.375 28.3438 28.2969 28.25 28.2031 28.1719 28.125 28.0781 27.5469 27.5 27.4531 27.4219 27.375 27.3438 27.2969 27.2656 27.2188 27.2813 27.375 27.4688 27.5469 27.5156 27.4688 27.4375 27.3906 27.3594 27.3125 27.2813 27.2344 27.2031 27.1719 27.125 26.6094 26.5625 26.5313 26.5 26.4531 26.4219 26.375 26.3438 26.3125 26.2813 26.2344 26.25 26.3281 26.2969 26.2656 26.2344 26.1875 26.1563 26.125 26.0938 26.0469 26.0156 25.9844 25.9531 25.9219 25.8906 25.8438 25.8125 25.7813 25.75 25.7188 25.6875 25.6563 25.625 25.5938 25.5625 25.5313 25.5 25.4688 25.4375 25.4063 25.375 25.3438 25.3125 25.2813 25.25 25.2188 25.1875 25.1563 25.125 25.0938 25.0625 25.0469 25.0156 24.9844 24.9531 24.9219 24.8906 24.875 24.8438 24.8125 24.7813 24.7656 24.7344 24.7031 24.6719 24.6563 24.625 24.4531 24.4219 24.3906 24.375 24.3438 24.3125 24.2969 24.2656 24.25 24.2188 24.1875 24.1719 24.1563 24.3438 24.0156 24 23.9688 23.9531 23.9219 23.9063 23.8906 23.8594 23.8438 23.8125 23.7969 23.7813 23.875 24.0781 23.7969 23.7656 23.75 23.7344 23.7031 23.6875 23.6719 23.6563 23.625 23.7188 23.9375 24 23.9844 23.9688 23.9375 23.9219 23.9063 23.8906 23.875 23.8594 23.8438 23.8125 23.7969 23.7813 23.7656 23.3281 23.3125 23.2969 23.2813 23.2656 23.25 23.2344 23.2188 23.2031 23.1875 23.1719 23.1563 23.2813 23.5625 23.5469 23.5313 23.5156 23.5 23.4844 23.4688 23.4688 23.4531 23.4375 23.4219 23.4063 23.4063 23.3906 23.375 23.375 22.9375 22.9219 22.9219 22.9063 22.9063 22.8906 22.875 22.875 22.8594 23.2188 23.2656 23.25 23.25 23.2344 23.2188 23.2188 23.2031 23.2031 23.2031 23.1875 23.1875 23.1719 23.1719 23.1563 23.1563 22.7344 22.7344 22.7188 22.7188 22.7188 22.7031 22.7031 22.7031 22.6875 22.6875 22.6875 22.6875 22.6875 22.8125 22.8125 22.8125 22.8125 22.8125 22.8125 22.7969 22.7969 22.7969 22.7969 22.7969 22.7969 22.7969 22.7969 22.7969 22.7969 22.7969 22.7969 22.7969 22.7969 22.7969 22.7969 22.7969 22.7969 22.7969 22.7969 22.7969 22.7969 22.7969 22.7969 22.8125 22.8125 22.8125 22.8125 22.8125 22.8125 22.8281 22.8281 22.8281 22.8281 22.8438 22.8438 22.8438 22.8438 22.8594 22.8594 22.8594 22.875 22.875 22.8906 22.8906 22.8906 22.9063 22.9063 22.9063 22.9219 22.9219 22.9375 22.9375 22.9531 22.9531 22.8281 22.8281 22.8438 22.8438 22.8594 22.8594 22.875 22.875 22.8906 22.9063 22.9063 22.9219 23.3438 23.0781 23.0313 23.0469 23.0625 23.0625 23.0781 23.0938 23.1094 23.1094 23.125 23.1406 23.1563 23.4844 23.5 23.5156 23.5313 23.2344 23.1406 23.1406 23.1563 23.1719 23.1875 23.2031 23.2188 23.2344 23.2344 23.25 23.6875 23.7031 23.7188 23.7344 23.75 23.7656 23.7813 23.7969 23.8125 23.8281 23.8438 23.8594 23.875 23.9063 23.9219 23.9375 23.8281 23.625 23.5469 23.5781 23.5938 23.6094 23.625 23.6406 23.6563 23.6719 23.7031 23.7188 23.7344 23.75 23.7656 23.7969 65504 65504 65504 65504 65504 65504 65504 65504 65504 65504 65504 65504 65504 65504 65504 65504 65504 65504 65504 65504 65504 65504 65504 65504 65504 65504 65504 65504 65504 65504 65504 65504 65504 65504
65504 65504 65504 65504 65504 65504 65504 65504 65504 65504 65504 65504 65504 65504 65504 65504 65504 65504 65504 65504 65504 65504 65504 65504 65504 65504 65504 65504 65504 28.7188 28.6719 28.625 28.5938 28.5469 28.5 28.4531 28.4063 28.375 28.3281 28.2813 28.2344 28.2188 28.3125 28.3906 28.4688 28.5313 28.4844 28.4531 28.4063 28.3594 28.3125 28.2813 28.2344 28.1875 28.1563 28.1094 28.0625 27.5156 27.4844 27.4375 27.4063 27.3594 27.3281 27.2813 27.2344 27.2031 27.2656 27.3594 27.4531 27.5313 27.5 27.4531 27.4219 27.375 27.3438 27.2969 27.2656 27.2188 27.1875 27.1406 27.1094 26.5781 26.5469 26.5156 26.4688 26.4375 26.4063 26.3594 26.3281 26.2969 26.25 26.2188 26.2344 26.3125 26.2813 26.25 26.2031 26.1719 26.1406 26.1094 26.0625 26.0313 26 25.9688 25.9375 25.9063 25.8594 25.8281 25.7969 25.7656 25.7344 25.7031 25.6719 25.6406 25.6094 25.5625 25.5313 25.5 25.4688 25.4375 25.4063 25.375 25.3438 25.3125 25.2813 25.2656 25.2344 25.2031 25.1719 25.1406 25.1094 25.0781 25.0469 25.0156 25 24.9688 24.9375 24.9063 24.875 24.8438 24.8281 24.7969 24.7656 24.7344 24.7188 24.6875 24.6563 24.6406 24.6094 24.4219 24.4063 24.375 24.3438 24.3281 24.2969 24.2813 24.25 24.2188 24.2031 24.1719 24.1563 24.1406 24.3125 24 23.9844 23.9531 23.9375 23.9063 23.8906 23.8594 23.8438 23.8125 23.7969 23.7813 23.75 23.8438 24.0625 23.7656 23.75 23.7344 23.7031 23.6875 23.6719 23.6406 23.625 23.6094 23.6875 23.9219 23.9844 23.9688 23.9375 23.9219 23.9063 23.8906 23.875 23.8594 23.8281 23.8125 23.7969 23.7813 23.7656 23.75 23.3125 23.2969 23.2813 23.2656 23.25 23.2344 23.2188 23.2031 23.1875 23.1719 23.1563 23.1406 23.25 23.5313 23.5156 23.5 23.5 23.4844 23.4688 23.4531 23.4375 23.4219 23.4219 23.4063 23.3906 23.375 23.375 23.3594 23.3438 22.9219 22.9063 22.8906 22.8906 22.875 22.875 22.8594 22.8438 22.8438 23.1875 23.2344 23.2344 23.2188 23.2188 23.2031 23.2031 23.1875 23.1875 23.1719 23.1719 23.1563 23.1563 23.1406 23.1406 23.1406 22.7188 22.7031 22.7031 22.7031 22.6875 22.6875 22.6875 22.6719 22.6719 22.6719 22.6719 22.6563 22.6719 22.7969 22.7969 22.7969 22.7969 22.7813 22.7813 22.7813 22.7813 22.7813 22.7813 22.7813 22.7813 22.7656 22.7656 22.7656 22.7656 22.7656 22.7656 22.7656 22.7656 22.7656 22.7656 22.7656 22.7656 22.7813 22.7813 22.7813 22.7813 22.7813 22.7813 22.7813 22.7813 22.7969 22.7969 22.7969 22.7969 22.7969 22.8125 22.8125 22.8125 22.8125 22.8281 22.8281 22.8281 22.8438 22.8438 22.8438 22.8438 22.8594 22.8594 22.875 22.875 22.875 22.8906 22.8906 22.9063 22.9063 22.9219 22.9219 22.9375 22.9375 22.7969 22.8125 22.8125 22.8281 22.8281 22.8438 22.8594 22.8594 22.875 22.875 22.8906 22.9063 23.3281 23.0625 23.0156 23.0313 23.0313 23.0469 23.0625 23.0781 23.0781 23.0938 23.1094 23.125 23.125 23.4688 23.4844 23.5 23.5 23.2031 23.1094 23.125 23.1406 23.1563 23.1719 23.1875 23.1875 23.2031 23.2188 23.2344 23.6719 23.6875 23.7031 23.7188 23.7344 23.75 23.7656 23.7813 23.7969 23.8125 23.8281 23.8438 23.8594 23.875 23.8906 23.9063 23.8125 23.5938 23.5313 23.5469 23.5781 23.5938 23.6094 23.625 23.6406 23.6563 23.6719 23.7031 23.7188 23.7344 23.75 23.7656 65504 65504 65504 65504 65504 65504 65504 65504 65504 65504 65504 65504 65504 65504 65504 65504 65504 65504 65504 65504 65504 65504 65504 65504 65504 65504 65504 65504 65504 65504 65504 65504 65504 65504
