1.85112;-3.99036;1.64697;104;104;104
1.81771;-3.98972;1.64347;108;108;108
1.78489;-3.98971;1.64009;114;114;114
1.75226;-3.98946;1.63671;119;119;119
1.7202;-3.98985;1.63344;119;119;119
1.68833;-3.99002;1.63017;116;116;116
1.65702;-3.99084;1.62701;112;112;112
1.62551;-3.99054;1.62374;108;108;108
1.53625;-3.84815;1.60241;88;88;88
1.44418;-3.69419;1.57982;84;84;84
1.38777;-3.62504;1.56812;79;79;79
1.3612;-3.62948;1.56576;69;69;69
1.3365;-3.63826;1.56396;43;43;43
1.31501;-3.65504;1.56317;40;40;40
1.33312;-3.77701;1.57542;27;27;27
1.22518;-3.56176;1.54597;14;14;14
1.19831;-3.56152;1.54318;16;16;16
1.17193;-3.56201;1.54051;18;18;18
1.14571;-3.56232;1.53783;16;16;16
1.11932;-3.56154;1.53505;16;16;16
1.09373;-3.56243;1.53248;15;15;15
1.06798;-3.56222;1.52981;15;15;15
1.04239;-3.56185;1.52714;15;15;15
1.01727;-3.56223;1.52459;15;15;15
0.992293;-3.56245;1.52203;16;16;16
0.969249;-3.56805;1.52013;9;9;9
0.947771;-3.57814;1.51878;10;10;10
0.926647;-3.58903;1.51753;11;11;11
0.905582;-3.59979;1.51628;12;12;12
0.884576;-3.61044;1.51502;10;10;10
0.864183;-3.62282;1.51397;8;8;8
0.82285;-3.56335;1.50465;24;24;24
0.799358;-3.56329;1.50222;28;28;28
0.776014;-3.56309;1.4998;24;24;24
0.754902;-3.57022;1.49823;17;17;17
0.75084;-3.63902;1.50367;2;2;2
0.746863;-3.70972;1.50928;2;2;2
0.737967;-3.76356;1.51295;1;1;1
0.722641;-3.7939;1.51395;2;2;2
0.7048;-3.81477;1.51389;2;2;2
0.686936;-3.83555;1.51382;3;3;3
0.669523;-3.85813;1.51395;3;3;3
0.651614;-3.87874;1.51386;9;9;9
0.635728;-3.90775;1.51469;13;13;13
0.617529;-3.92726;1.51448;18;18;18
0.597128;-3.93721;1.51322;23;23;23
0.576794;-3.94706;1.51197;28;28;28
0.557164;-3.95965;1.51102;29;29;29
0.536953;-3.9693;1.50975;36;36;36
0.518245;-3.98549;1.5092;43;43;43
0.497945;-3.99399;1.50784;49;49;49
0.386791;-3.56495;1.45985;49;49;49
0.380315;-3.63191;1.46488;3;3;3
0.38014;-3.73221;1.47341;1;1;1
0.380474;-3.83828;1.48247;1;1;1
0.382728;-3.95776;1.49288;18;18;18
0.368754;-3.99522;1.49463;46;46;46
0.315792;-3.82246;1.47446;25;25;25
0.263863;-3.64745;1.45421;25;25;25
0.247433;-3.66439;1.45396;3;3;3
0.225186;-3.64775;1.45025;14;14;14
0.205947;-3.64727;1.44822;22;22;22
0.189707;-3.66397;1.44797;4;4;4
0.168004;-3.64703;1.44429;30;30;30
0.151583;-3.66165;1.44385;5;5;5
0.149082;-3.7655;1.45243;0;0;0
0.164988;-3.99426;1.47355;20;20;20
0.102283;-3.70414;1.44238;16;16;16
0.0690436;-3.60213;1.43027;30;30;30
0.0510665;-3.60191;1.4284;43;43;43
0.0309417;-3.58526;1.42491;62;62;62
0.0106508;-3.56563;1.42115;99;99;99
-0.00648317;-3.56807;1.41959;69;69;69
-0.0106749;-3.6707;1.42789;12;12;12
-0.0103756;-3.81385;1.44012;11;11;11
-0.0105488;-3.95995;1.45254;38;38;38
-0.0245633;-3.99606;1.45417;90;90;90
-0.0429119;-3.99543;1.45222;110;110;110
-0.0610342;-3.99568;1.45038;125;125;125
-0.0790438;-3.99586;1.44854;135;135;135
-0.0970424;-3.99502;1.44661;140;140;140
-0.114726;-3.99603;1.44488;138;138;138
1.99859;1.76439;1.16085;190;190;190
1.99809;1.75592;1.16149;193;193;193
1.99805;1.74743;1.16217;193;193;193
1.99846;1.73892;1.16291;194;194;194
1.99885;1.73035;1.16364;191;191;191
1.99825;1.72168;1.16429;192;192;192
1.99811;1.71299;1.16498;192;192;192
1.99794;1.70425;1.16568;194;194;194
1.99822;1.69548;1.16642;194;194;194
1.99848;1.68665;1.16716;192;192;192
1.99872;1.67777;1.16791;193;193;193
1.99892;1.66884;1.16865;192;192;192
1.99861;1.65984;1.16936;190;190;190
1.99827;1.65079;1.17006;194;194;194
1.99839;1.64169;1.17081;193;193;193
1.99847;1.63254;1.17156;193;193;193
1.99853;1.62334;1.17232;194;194;194
1.99855;1.61408;1.17307;194;194;194
1.99855;1.60477;1.17383;197;197;197
1.99851;1.5954;1.17459;196;196;196
1.99843;1.58597;1.17535;197;197;197
1.99833;1.57649;1.17611;198;198;198
1.99867;1.56695;1.17692;196;196;196
1.99898;1.55735;1.17773;196;196;196
1.99877;1.5477;1.1785;196;196;196
1.99852;1.53799;1.17926;198;198;198
1.99824;1.52822;1.18003;199;199;199
1.9984;1.51839;1.18085;198;198;198
1.99853;1.50849;1.18166;199;199;199
1.9991;1.49852;1.18253;197;197;197
1.99866;1.48852;1.1833;200;200;200
1.99818;1.47846;1.18407;200;200;200
1.99863;1.46831;1.18494;199;199;199
1.99904;1.45809;1.18582;199;199;199
1.99844;1.44785;1.18659;201;201;201
1.99876;1.4375;1.18746;200;200;200
1.99905;1.42709;1.18834;200;200;200
1.99831;1.41668;1.18911;201;201;201
1.99899;1.40611;1.19004;202;202;202
1.99865;1.39554;1.19087;202;202;202
1.99874;1.38487;1.19174;202;202;202
1.99879;1.37414;1.19262;203;203;203
1.99879;1.36334;1.1935;203;203;203
1.99874;1.35248;1.19438;205;205;205
1.99913;1.34151;1.19531;203;203;203
1.99899;1.33052;1.19619;203;203;203
1.99878;1.31946;1.19707;206;206;206
1.99853;1.30834;1.19795;204;204;204
1.9987;1.29709;1.19888;206;206;206
1.99883;1.28579;1.19982;205;205;205
1.99938;1.27435;1.2008;206;206;206
1.99891;1.26296;1.20168;205;205;205
1.99886;1.25145;1.20261;205;205;205
1.99876;1.23986;1.20355;206;206;206
1.99908;1.22815;1.20453;206;206;206
1.99934;1.21636;1.20551;207;207;207
1.99954;1.2045;1.2065;206;206;206
1.9992;1.19263;1.20743;208;208;208
1.99879;1.1807;1.20836;208;208;208
1.99928;1.16856;1.2094;208;208;208
1.99922;1.15641;1.21038;208;208;208
1.99958;1.14411;1.21142;207;207;207
1.99939;1.13182;1.2124;207;207;207
1.99913;1.11946;1.21338;207;207;207
1.99976;1.10686;1.21447;207;207;207
1.99937;1.09435;1.21545;208;208;208
1.99938;1.08168;1.21648;208;208;208
1.99932;1.06894;1.21751;206;206;206
1.99967;1.05603;1.21859;205;205;205
1.99945;1.04314;1.21962;207;207;207
1.99965;1.03008;1.2207;205;205;205
1.99976;1.01694;1.22178;207;207;207
1.9998;1.00372;1.22286;207;207;207
1.99976;0.99043;1.22394;206;206;206
1.99963;0.977061;1.22502;206;206;206
1.99943;0.963616;1.22609;204;204;204
1.99961;0.949984;1.22722;205;205;205
1.99971;0.936272;1.22834;206;206;206
1.99973;0.922482;1.22947;207;207;207
1.99966;0.908614;1.23059;205;205;205
1.99997;0.894546;1.23176;205;205;205
2.00019;0.880397;1.23294;207;207;207
2.00032;0.866167;1.23411;205;205;205
2.00036;0.851857;1.23528;207;207;207
2.0003;0.837466;1.23644;206;206;206
2.00015;0.822995;1.2376;207;207;207
1.99991;0.808447;1.23876;207;207;207
2.0005;0.793545;1.24003;208;208;208
2.00006;0.778836;1.24119;206;206;206
2.00045;0.763766;1.24245;207;207;207
2.00027;0.748757;1.24366;208;208;208
2.00045;0.73352;1.24491;209;209;209
2.00053;0.718199;1.24617;210;210;210
2.0005;0.702796;1.24742;209;209;209
2.00036;0.687311;1.24867;209;209;209
2.00058;0.671587;1.24997;210;210;210
2.00068;0.655781;1.25126;211;211;211
2.00067;0.639888;1.25255;209;209;209
2.00055;0.623913;1.25384;208;208;208
2.00077;0.60769;1.25518;207;207;207
2.00088;0.591381;1.25652;209;209;209
2.00086;0.574987;1.25785;207;207;207
2.00072;0.558511;1.25918;207;207;207
2.00092;0.541775;1.26056;207;207;207
2.00099;0.524952;1.26194;209;209;209
2.00094;0.508044;1.26331;208;208;208
2.00121;0.490869;1.26473;206;206;206
2.00135;0.473607;1.26615;205;205;205
2.00136;0.456258;1.26756;203;203;203
2.00125;0.438823;1.26897;206;206;206
2.00144;0.421111;1.27043;204;204;204
2.0015;0.403314;1.27189;203;203;203
2.00142;0.38543;1.27333;204;204;204
2.0012;0.36746;1.27477;204;204;204
2.00129;0.349204;1.27627;203;203;203
2.00123;0.330863;1.27775;203;203;203
2.0019;0.31202;1.27935;203;203;203
2.002;0.293292;1.28089;205;205;205
2.00194;0.274479;1.28241;203;203;203
2.00173;0.255582;1.28393;204;204;204
2.00224;0.236163;1.28556;203;203;203
2.00174;0.217094;1.28706;202;202;202
2.00194;0.197499;1.28868;203;203;203
2.00198;0.177815;1.29028;202;202;202
2.0023;0.157815;1.29194;201;201;201
2.00245;0.137729;1.29359;201;201;201
2.00244;0.117551;1.29523;200;200;200
2.00226;0.0972903;1.29686;196;196;196
2.00277;0.0764668;1.29861;197;197;197
2.00269;0.0557933;1.30028;196;196;196
2.00243;0.0350346;1.30195;193;193;193
2.00284;0.0137007;1.30372;192;192;192
2.00267;-0.00747708;1.30543;190;190;190
2.00273;-0.0289873;1.30718;190;190;190
2.0026;-0.0505831;1.30893;187;187;187
2.00272;-0.0725193;1.31073;189;189;189
2.00306;-0.0948011;1.31257;195;195;195
2.00322;-0.117173;1.31441;197;197;197
2.0036;-0.139894;1.31629;204;204;204
2.00338;-0.162442;1.31811;208;208;208
2.00338;-0.18534;1.31997;209;209;209
2.00318;-0.208323;1.32182;211;211;211
2.0036;-0.231932;1.32378;210;210;210
2.00382;-0.255636;1.32573;211;211;211
2.00383;-0.279425;1.32767;211;211;211
2.00404;-0.303577;1.32966;211;211;211
2.00404;-0.327817;1.33163;210;210;210
2.00424;-0.352429;1.33365;209;209;209
2.00384;-0.376841;1.3356;209;209;209
2.00439;-0.402196;1.33772;200;200;200
2.00473;-0.427646;1.33982;182;182;182
2.00485;-0.453181;1.34191;166;166;166
2.00476;-0.478806;1.34399;157;157;157
2.00444;-0.504511;1.34605;154;154;154
2.00468;-0.530899;1.34822;152;152;152
2.00468;-0.557373;1.35037;149;149;149
2.00484;-0.584235;1.35257;146;146;146
2.00514;-0.611491;1.35482;145;145;145
2.00521;-0.638834;1.35705;143;143;143
2.00505;-0.666262;1.35927;141;141;141
2.00539;-0.694397;1.36159;139;139;139
2.00512;-0.722305;1.36384;137;137;137
2.00571;-0.751246;1.36625;135;135;135
2.00533;-0.779639;1.36852;131;131;131
2.00543;-0.808753;1.3709;123;123;123
2.006;-0.8386;1.37339;112;112;112
1.99666;-0.859715;1.37418;96;96;96
1.99037;-0.883762;1.37552;85;85;85
1.98814;-0.911785;1.37758;63;63;63
1.98885;-0.942862;1.38018;54;54;54
1.9816;-0.966655;1.3814;32;32;32
1.97313;-0.989429;1.38242;28;28;28
1.9714;-1.01897;1.38465;16;16;16
1.97218;-1.0513;1.38736;30;30;30
1.97166;-1.0827;1.38986;36;36;36
1.98886;-1.13248;1.39561;127;127;127
2.00659;-1.18359;1.40152;190;190;190
2.00707;-1.21751;1.40432;194;194;194
2.00726;-1.25152;1.40711;193;193;193
2.00716;-1.28562;1.40987;191;191;191
2.00677;-1.31979;1.41262;188;188;188
2.00676;-1.35475;1.41546;185;185;185
2.00677;-1.39015;1.41834;182;182;182
2.00713;-1.42636;1.42132;177;177;177
2.0072;-1.46265;1.42428;170;170;170
2.00695;-1.49902;1.42722;162;162;162
2.00767;-1.53693;1.43037;156;156;156
2.00744;-1.5742;1.43339;146;146;146
2.00753;-1.61228;1.43649;140;140;140
2.00731;-1.65045;1.43958;132;132;132
2.00799;-1.69019;1.44288;115;115;115
2.00835;-1.73001;1.44615;69;69;69
1.95929;-1.70868;1.43958;16;16;16
1.92806;-1.70888;1.43652;14;14;14
1.89757;-1.70956;1.43357;15;15;15
1.8672;-1.70997;1.43061;15;15;15
1.83637;-1.70933;1.42751;16;16;16
1.80685;-1.70995;1.42465;16;16;16
1.77687;-1.70953;1.42166;17;17;17
1.74819;-1.71041;1.41891;17;17;17
1.71906;-1.71024;1.41602;17;17;17
1.69062;-1.71059;1.41325;17;17;17
1.66176;-1.70991;1.41035;18;18;18
1.63415;-1.71055;1.40767;18;18;18
1.60666;-1.71094;1.405;18;18;18
1.58204;-1.71509;1.40291;12;12;12
1.61405;-1.80249;1.41317;4;4;4
1.78541;-2.09973;1.45426;1;1;1
1.75574;-2.09982;1.45134;1;1;1
1.72674;-2.10045;1.44853;1;1;1
1.69788;-2.10084;1.44572;1;1;1
1.66915;-2.10097;1.4429;2;2;2
1.64057;-2.10087;1.44007;4;4;4
1.61213;-2.1005;1.43724;5;5;5
1.58485;-2.10156;1.43463;6;6;6
1.73586;-2.39573;1.47346;1;1;1
1.75114;-2.47046;1.48105;1;1;1
1.72128;-2.47035;1.47809;0;0;0
1.69158;-2.46999;1.47513;1;1;1
1.66252;-2.47022;1.47229;2;2;2
1.63361;-2.47021;1.46944;2;2;2
1.60533;-2.47081;1.4667;4;4;4
1.5819;-2.47964;1.46511;6;6;6
1.67632;-2.70241;1.49254;16;16;16
1.65004;-2.7081;1.49041;24;24;24
1.62661;-2.71871;1.48897;38;38;38
1.60594;-2.73428;1.4882;40;40;40
1.58662;-2.75229;1.48776;37;37;37
1.56995;-2.77534;1.48799;34;34;34
1.55715;-2.80605;1.48923;31;31;31
1.55205;-2.8523;1.49249;40;40;40
2.01296;-3.83662;1.61803;79;79;79
2.01272;-3.90618;1.62366;79;79;79
1.91976;-3.78552;1.60468;49;49;49
1.70767;-3.41197;1.55337;64;64;64
1.76666;-3.60216;1.57466;89;89;89
1.91571;-3.98999;1.62092;93;93;93
1.88189;-3.98983;1.61757;96;96;96
1.84867;-3.99029;1.61433;98;98;98
1.81523;-3.98961;1.61098;104;104;104
1.73531;-3.88309;1.59443;95;95;95
1.65661;-3.77586;1.57795;62;62;62
1.57952;-3.66882;1.56164;39;39;39
1.50327;-3.56022;1.54528;26;26;26
1.47438;-3.56101;1.5425;17;17;17
1.44565;-3.56161;1.53971;12;12;12
1.41672;-3.56109;1.53682;12;12;12
1.38833;-3.56127;1.53403;12;12;12
1.3601;-3.56125;1.53125;10;10;10
1.3324;-3.56193;1.52857;11;11;11
1.30451;-3.56151;1.52579;11;11;11
1.27713;-3.56181;1.52311;10;10;10
1.25162;-3.56645;1.52098;6;6;6
1.22927;-3.57912;1.5198;7;7;7
1.20064;-3.57433;1.51659;10;10;10
1.17583;-3.57938;1.51456;8;8;8
1.16087;-3.61171;1.51571;8;8;8
1.13906;-3.62473;1.51462;4;4;4
1.11981;-3.64496;1.51437;1;1;1
1.10149;-3.66784;1.51442;1;1;1
1.08313;-3.69061;1.51447;1;1;1
1.06472;-3.71329;1.5145;2;2;2
1.04627;-3.73586;1.51452;2;2;2
1.02779;-3.75834;1.51452;2;2;2
1.00927;-3.78071;1.51452;2;2;2
0.99071;-3.80299;1.5145;3;3;3
0.972121;-3.82517;1.51447;2;2;2
0.953502;-3.84725;1.51443;2;2;2
0.935403;-3.87109;1.51459;3;3;3
0.820331;-3.56298;1.47817;22;22;22
0.797098;-3.56383;1.47595;23;23;23
0.773475;-3.56266;1.47353;24;24;24
0.753657;-3.57445;1.47253;14;14;14
0.750831;-3.64796;1.47823;2;2;2
0.751338;-3.73557;1.48541;2;2;2
0.751027;-3.8223;1.49244;2;2;2
0.751385;-3.91379;1.49992;2;2;2
0.748015;-3.99311;1.50604;32;32;32
0.724191;-3.99334;1.50371;40;40;40
0.700518;-3.99344;1.50139;43;43;43
0.677222;-3.99434;1.49916;41;41;41
0.653616;-3.99324;1.49674;42;42;42
0.630612;-3.9939;1.49453;44;44;44
0.60753;-3.99348;1.49222;54;54;54
0.584812;-3.99388;1.49001;62;62;62
0.562236;-3.99417;1.48781;66;66;66
0.539593;-3.99338;1.48551;68;68;68
0.517509;-3.99438;1.48342;68;68;68
0.450151;-3.7804;1.45937;53;53;53
0.384743;-3.56691;1.43554;34;34;34
0.380168;-3.6434;1.44132;2;2;2
0.380478;-3.7466;1.44975;1;1;1
0.380527;-3.85176;1.45831;2;2;2
0.381216;-3.96366;1.46748;25;25;25
0.365944;-3.99443;1.46848;45;45;45
0.313042;-3.82155;1.4492;27;27;27
0.261353;-3.64738;1.42993;31;31;31
0.246266;-3.67196;1.43044;3;3;3
0.222665;-3.64762;1.42613;23;23;23
0.203749;-3.64905;1.42438;20;20;20
0.188447;-3.67148;1.4247;5;5;5
0.165629;-3.6478;1.42052;33;33;33
0.145994;-3.64224;1.41813;7;7;7
0.135761;-3.69615;1.42151;15;15;15
0.133732;-3.80578;1.43023;16;16;16
0.0851816;-3.60579;1.40917;11;11;11
0.0663781;-3.60083;1.40692;35;35;35
0.0484034;-3.6006;1.40512;38;38;38
0.0285514;-3.58584;1.40197;72;72;72
0.00826431;-3.56618;1.39837;103;103;103
-0.00786419;-3.57631;1.3976;58;58;58
-0.0105279;-3.6915;1.40671;12;12;12
-0.0103596;-3.83471;1.41838;11;11;11
-0.0118324;-3.97122;1.42934;48;48;48
-0.0272646;-3.99573;1.42982;88;88;88
-0.0456148;-3.99507;1.42795;108;108;108
-0.0636303;-3.99627;1.42627;122;122;122
-0.0817473;-3.99547;1.42442;133;133;133
-0.0995435;-3.99653;1.42276;137;137;137
-0.117431;-3.99559;1.42091;134;134;134
1.99808;1.76566;1.14939;190;190;190
1.99856;1.75725;1.15008;186;186;186
1.99852;1.74876;1.15074;191;191;191
1.99847;1.74021;1.1514;193;193;193
1.9979;1.7316;1.15201;195;195;195
1.99828;1.72298;1.15272;193;193;193
1.99863;1.71431;1.15342;194;194;194
1.99895;1.70559;1.15413;194;194;194
1.99828;1.69678;1.15475;193;193;193
1.99855;1.68795;1.15546;193;193;193
1.99781;1.67904;1.15608;194;194;194
1.99803;1.6701;1.15679;197;197;197
1.99822;1.66112;1.15751;193;193;193
1.99837;1.65208;1.15823;194;194;194
1.9985;1.64298;1.15894;193;193;193
1.9986;1.63383;1.15966;193;193;193
1.99867;1.62463;1.16038;195;195;195
1.9987;1.61537;1.1611;196;196;196
1.99871;1.60605;1.16183;195;195;195
1.99868;1.59668;1.16255;195;195;195
1.99862;1.58725;1.16328;194;194;194
1.99852;1.57777;1.164;196;196;196
1.99839;1.56823;1.16473;197;197;197
1.99822;1.55863;1.16546;197;197;197
1.99802;1.54898;1.16619;198;198;198
1.99876;1.53926;1.16702;198;198;198
1.99849;1.52949;1.16775;196;196;196
1.99915;1.51964;1.16857;199;199;199
1.99881;1.50975;1.16931;197;197;197
1.99842;1.49981;1.17004;198;198;198
1.99848;1.48979;1.17083;199;199;199
1.99849;1.47971;1.17161;200;200;200
1.99896;1.46955;1.17244;199;199;199
1.99841;1.45938;1.17318;200;200;200
1.99878;1.44909;1.17401;201;201;201
1.99912;1.43874;1.17485;202;202;202
1.99844;1.42838;1.17559;200;200;200
1.99869;1.4179;1.17642;200;200;200
1.9989;1.40736;1.17726;200;200;200
1.99857;1.39679;1.17805;201;201;201
1.99916;1.38608;1.17894;203;203;203
1.99874;1.37539;1.17973;203;203;203
1.99875;1.36459;1.18057;203;203;203
1.99872;1.35372;1.18141;202;202;202
1.99911;1.34275;1.18229;204;204;204
1.99849;1.3318;1.18309;204;204;204
1.9988;1.32069;1.18398;203;203;203
1.99904;1.30951;1.18487;204;204;204
1.99874;1.29831;1.18571;205;205;205
1.99888;1.287;1.1866;205;205;205
1.99896;1.27562;1.18749;205;205;205
1.99947;1.26411;1.18843;206;206;206
1.99895;1.25265;1.18927;207;207;207
1.99934;1.241;1.19021;207;207;207
1.9992;1.22934;1.1911;207;207;207
1.99898;1.21761;1.19199;207;207;207
1.99919;1.20575;1.19293;207;207;207
1.99935;1.19381;1.19387;206;206;206
1.99943;1.1818;1.19481;204;204;204
1.99945;1.16972;1.19575;207;207;207
1.99941;1.15757;1.19669;205;205;205
1.9993;1.14534;1.19763;206;206;206
1.99912;1.13305;1.19856;207;207;207
1.99888;1.12068;1.1995;210;210;210
1.99953;1.10807;1.20054;208;208;208
1.99914;1.09556;1.20148;207;207;207
1.99965;1.0828;1.20251;207;207;207
1.99912;1.07014;1.20345;205;205;205
1.99948;1.05722;1.20448;207;207;207
1.99976;1.04423;1.20552;206;206;206
1.99949;1.03126;1.2065;207;207;207
1.99962;1.01811;1.20753;206;206;206
1.99967;1.00489;1.20856;205;205;205
1.99964;0.991588;1.20959;205;205;205
1.99953;0.978212;1.21062;203;203;203
1.99981;0.96465;1.21169;205;205;205
2;0.951008;1.21277;206;206;206
1.99965;0.937401;1.21379;205;205;205
2.00015;0.923486;1.21492;207;207;207
1.99962;0.909726;1.21594;205;205;205
1.99994;0.89565;1.21706;206;206;206
2.00018;0.881492;1.21818;206;206;206
2.00032;0.867252;1.2193;206;206;206
2.00037;0.852934;1.22041;206;206;206
2.00033;0.838532;1.22153;206;206;206
2.00019;0.824053;1.22264;207;207;207
1.99996;0.809495;1.22375;208;208;208
2.0001;0.79472;1.2249;205;205;205
2.00013;0.779863;1.22606;207;207;207
2.00053;0.764782;1.22727;207;207;207
2.00037;0.749762;1.22842;209;209;209
2.00056;0.734514;1.22962;208;208;208
2.00065;0.719182;1.23082;209;209;209
2.00064;0.703766;1.23201;208;208;208
2.00051;0.688269;1.2332;210;210;210
2.00028;0.672691;1.23439;209;209;209
2.00086;0.656714;1.23568;210;210;210
2.0004;0.640972;1.23686;210;210;210
2.00075;0.624823;1.23815;208;208;208
2.00098;0.608586;1.23943;208;208;208
2.0011;0.592264;1.24071;208;208;208
2.00109;0.575856;1.24198;208;208;208
2.00097;0.559365;1.24325;207;207;207
2.00072;0.542791;1.24451;206;206;206
2.00126;0.525777;1.24588;207;207;207
2.00122;0.508855;1.24719;206;206;206
2.00105;0.491849;1.24849;206;206;206
2.0012;0.474574;1.24985;206;206;206
2.00122;0.457212;1.2512;206;206;206
2.00156;0.439574;1.2526;204;204;204
2.00132;0.422039;1.25393;204;204;204
2.00139;0.404227;1.25532;205;205;205
2.00132;0.386328;1.2567;205;205;205
2.00155;0.368144;1.25814;204;204;204
2.00165;0.349872;1.25956;204;204;204
2.0016;0.331513;1.26098;204;204;204
2.00141;0.313068;1.2624;204;204;204
2.00195;0.294119;1.26392;202;202;202
2.0019;0.275288;1.26537;204;204;204
2.0017;0.256376;1.26682;203;203;203
2.00222;0.236942;1.26838;204;204;204
2.00216;0.217634;1.26987;204;204;204
2.00237;0.19802;1.27141;203;203;203
2.00242;0.178317;1.27295;203;203;203
2.00231;0.158528;1.27447;205;205;205
2.00205;0.138651;1.27599;204;204;204
2.00247;0.118229;1.27761;203;203;203
2.00273;0.097712;1.27923;205;205;205
2.0024;0.077344;1.28078;202;202;202
2.00274;0.0564161;1.28243;201;201;201
2.00249;0.0356365;1.28402;202;202;202
2.00291;0.0142838;1.28572;203;203;203
2.00273;-0.00690785;1.28735;204;204;204
2.0028;-0.0284385;1.28902;203;203;203
2.0031;-0.0503083;1.29075;202;202;202
2.00322;-0.0722679;1.29246;203;203;203
2.00316;-0.0943151;1.29417;203;203;203
2.00291;-0.116446;1.29586;204;204;204
2.0033;-0.139187;1.29766;207;207;207
2.00349;-0.162017;1.29945;208;208;208
2.00349;-0.184935;1.30123;209;209;209
2.0037;-0.208209;1.30305;209;209;209
2.00372;-0.23157;1.30487;210;210;210
2.00353;-0.255017;1.30667;210;210;210
2.00355;-0.278824;1.30852;209;209;209
2.00417;-0.303278;1.31047;212;212;212
2.00417;-0.327541;1.31236;211;211;211
2.00397;-0.351888;1.31423;210;210;210
2.00436;-0.376894;1.3162;209;209;209
2.00413;-0.401698;1.31811;204;204;204
2.00447;-0.427167;1.32012;196;196;196
2.0046;-0.452725;1.32211;181;181;181
2.0045;-0.478368;1.32409;171;171;171
2.00496;-0.50469;1.32618;166;166;166
2.00442;-0.530505;1.32813;162;162;162
2.00481;-0.557301;1.33024;160;160;160
2.00459;-0.583883;1.33228;158;158;158
2.00489;-0.61116;1.33443;155;155;155
2.00496;-0.638526;1.33656;154;154;154
2.00516;-0.666285;1.33873;152;152;152
2.00513;-0.694131;1.34089;152;152;152
2.0056;-0.722694;1.34315;149;149;149
2.00545;-0.751027;1.34533;148;148;148
2.00543;-0.779759;1.34756;145;145;145
2.00553;-0.808899;1.34983;143;143;143
2.00573;-0.838446;1.35214;142;142;142
2.00604;-0.868408;1.3545;140;140;140
2.00574;-0.898127;1.35677;139;139;139
2.0059;-0.928583;1.35915;134;134;134
2.00614;-0.95946;1.36157;131;131;131
2.00648;-0.990756;1.36403;127;127;127
2.0062;-1.0218;1.36641;126;126;126
2.00634;-1.0536;1.36889;124;124;124
2.00657;-1.08583;1.37141;125;125;125
2.00685;-1.11849;1.37397;156;156;156
2.00686;-1.15123;1.37652;187;187;187
2.0066;-1.18405;1.37904;192;192;192
2.00706;-1.218;1.38171;193;193;193
2.00691;-1.25168;1.38431;193;193;193
2.00713;-1.28615;1.38701;191;191;191
2.00706;-1.32071;1.38968;188;188;188
2.00638;-1.35498;1.39228;184;184;184
2.00703;-1.39113;1.39514;180;180;180
2.00674;-1.42664;1.39787;175;175;175
2.00742;-1.46368;1.40081;170;170;170
2.00716;-1.50008;1.40361;161;161;161
2.00723;-1.53729;1.4065;154;154;154
2.007;-1.57458;1.40937;146;146;146
2.0077;-1.61343;1.41245;139;139;139
2.00807;-1.65237;1.41551;131;131;131
2.00751;-1.69065;1.41843;113;113;113
2.00724;-1.72975;1.42143;63;63;63
1.95936;-1.7099;1.41539;15;15;15
1.9275;-1.70934;1.41234;14;14;14
1.89697;-1.71001;1.40952;15;15;15
1.86597;-1.70964;1.40658;15;15;15
1.83571;-1.70976;1.40374;15;15;15
1.80558;-1.7096;1.40089;16;16;16
1.77616;-1.70995;1.39815;16;16;16
1.74687;-1.71002;1.39539;16;16;16
1.71772;-1.70984;1.39264;17;17;17
1.68926;-1.71019;1.38998;17;17;17
1.6615;-1.71107;1.38744;18;18;18
1.63274;-1.71011;1.38466;17;17;17
1.60524;-1.71049;1.3821;17;17;17
1.58169;-1.71623;1.38033;12;12;12
1.61478;-1.8053;1.39035;4;4;4
1.78455;-2.10036;1.42923;0;0;0
1.75431;-2.09963;1.42632;1;1;1
1.72529;-2.10025;1.42364;1;1;1
1.6964;-2.10062;1.42095;2;2;2
1.66766;-2.10074;1.41825;3;3;3
1.63905;-2.10061;1.41555;4;4;4
1.61059;-2.10023;1.41284;5;5;5
1.58431;-2.10292;1.41057;5;5;5
1.73531;-2.39732;1.44763;1;1;1
1.74958;-2.47043;1.45464;1;1;1
1.69844;-2.43441;1.44704;1;1;1
1.67233;-2.43978;1.445;1;1;1
1.65749;-2.46426;1.4455;2;2;2
1.63195;-2.47011;1.44355;3;3;3
1.60365;-2.47068;1.44093;4;4;4
1.58115;-2.4812;1.43963;6;6;6
1.67274;-2.69903;1.46515;15;15;15
1.64691;-2.70555;1.46322;23;23;23
1.62393;-2.71699;1.46195;38;38;38
1.6028;-2.7317;1.4611;38;38;38
1.58347;-2.74969;1.46067;37;37;37
1.56723;-2.77358;1.461;34;34;34
1.55399;-2.80343;1.46207;31;31;31
1.54757;-2.84709;1.46485;37;37;37
2.01277;-3.84083;1.58574;71;71;71
1.93129;-3.74485;1.57062;64;64;64
1.82898;-3.6027;1.54996;22;22;22
1.98107;-3.98856;1.59422;52;52;52
1.94726;-3.98977;1.59113;87;87;87
1.91323;-3.98983;1.58793;90;90;90
1.87939;-3.98963;1.58473;90;90;90
1.84614;-3.99007;1.58163;94;94;94
1.81308;-3.99025;1.57854;103;103;103
1.68568;-3.77617;1.54993;73;73;73
1.56017;-3.56002;1.52135;9;9;9
1.53783;-3.57728;1.52059;6;6;6
1.5136;-3.58991;1.51928;5;5;5
1.48867;-3.6006;1.51777;4;4;4
1.46492;-3.61381;1.51656;4;4;4
1.44122;-3.62686;1.51534;3;3;3
1.42155;-3.64967;1.51526;2;2;2
1.40148;-3.67145;1.51506;2;2;2
1.38209;-3.69492;1.51505;1;1;1
1.36299;-3.71918;1.51514;2;2;2
1.34384;-3.74334;1.51521;1;1;1
1.32464;-3.76738;1.51527;2;2;2
1.30471;-3.78949;1.51511;2;2;2
1.19393;-3.56239;1.48706;9;9;9
1.18164;-3.60212;1.48898;2;2;2
1.18181;-3.67752;1.49485;2;2;2
1.1821;-3.75482;1.50087;1;1;1
1.18154;-3.83126;1.50675;1;1;1
1.17392;-3.88845;1.51047;2;2;2
1.16348;-3.93826;1.51335;10;10;10
1.14032;-3.95023;1.5121;15;15;15
1.11751;-3.96297;1.51094;27;27;27
1.09477;-3.97559;1.50978;30;30;30
1.07324;-3.99177;1.50901;38;38;38
1.04685;-3.99205;1.50655;40;40;40
1.02062;-3.99217;1.50409;44;44;44
0.994548;-3.99213;1.50163;42;42;42
0.969193;-3.99379;1.49937;43;43;43
0.818046;-3.56342;1.45176;24;24;24
0.794533;-3.56331;1.44953;23;23;23
0.771166;-3.56305;1.44731;24;24;24
0.752374;-3.57857;1.44675;11;11;11
0.751036;-3.65772;1.45276;1;1;1
0.731512;-3.67124;1.45197;6;6;6
0.719984;-3.71471;1.45426;12;12;12
0.709473;-3.76285;1.45701;6;6;6
0.67002;-3.69892;1.44833;19;19;19
0.622444;-3.59986;1.43617;37;37;37
0.603835;-3.61368;1.43549;16;16;16
0.599279;-3.68501;1.4406;5;5;5
0.608997;-3.8178;1.45181;15;15;15
0.628048;-3.99426;1.4673;45;45;45
0.605175;-3.99476;1.46518;56;56;56
0.58223;-3.99419;1.46298;67;67;67
0.559644;-3.99445;1.46087;76;76;76
0.537202;-3.99459;1.45877;77;77;77
0.514696;-3.99366;1.45658;76;76;76
0.447413;-3.77954;1.43363;57;57;57
0.383457;-3.57256;1.41156;32;32;32
0.380375;-3.65671;1.41779;2;2;2
0.380401;-3.75899;1.42573;1;1;1
0.331723;-3.61514;1.40999;11;11;11
0.311476;-3.61325;1.40794;40;40;40
0.292446;-3.617;1.40644;18;18;18
0.279319;-3.65222;1.40793;6;6;6
0.258648;-3.64624;1.40552;30;30;30
0.243045;-3.66794;1.40574;3;3;3
0.220125;-3.6474;1.40199;28;28;28
0.201692;-3.65168;1.40058;15;15;15
0.182397;-3.65012;1.39865;10;10;10
0.16308;-3.64751;1.39662;31;31;31
0.139338;-3.61599;1.39194;12;12;12
0.120545;-3.61414;1.39003;40;40;40
0.102464;-3.61606;1.38848;15;15;15
0.0824969;-3.60442;1.3857;14;14;14
0.0639754;-3.60137;1.38372;39;39;39
0.0462668;-3.60304;1.38218;36;36;36
0.0233661;-3.56609;1.37716;86;86;86
0.00573355;-3.56567;1.37546;109;109;109
-0.00901548;-3.58639;1.37568;46;46;46
-0.010536;-3.71127;1.38523;11;11;11
-0.0102561;-3.85646;1.39652;11;11;11
-0.0124416;-3.98819;1.40653;53;53;53
-0.0299809;-3.9953;1.40543;91;91;91
-0.0481107;-3.99655;1.40383;110;110;110
-0.0663468;-3.9958;1.40205;124;124;124
-0.0843601;-3.99594;1.40037;133;133;133
-0.102261;-3.99601;1.39869;135;135;135
-0.12005;-3.99601;1.39701;131;131;131
1.99898;1.76702;1.13804;189;189;189
1.99801;1.75852;1.13858;193;193;193
1.99799;1.75003;1.1392;191;191;191
1.99842;1.74151;1.13987;189;189;189
1.99884;1.73295;1.14054;189;189;189
1.99874;1.7243;1.14117;193;193;193
1.99812;1.71559;1.14176;191;191;191
1.99797;1.70684;1.14239;190;190;190
1.99828;1.69807;1.14306;192;192;192
1.99856;1.68924;1.14374;192;192;192
1.99881;1.68036;1.14442;194;194;194
1.99904;1.67143;1.1451;192;192;192
1.99827;1.66241;1.14569;196;196;196
1.99843;1.65337;1.14637;193;193;193
1.99857;1.64427;1.14706;196;196;196
1.99868;1.63512;1.14774;195;195;195
1.99779;1.6259;1.14834;194;194;194
1.99783;1.61664;1.14903;194;194;194
1.99785;1.60733;1.14972;193;193;193
1.99783;1.59796;1.15041;196;196;196
1.99875;1.58853;1.15119;196;196;196
1.99866;1.57905;1.15188;197;197;197
1.99855;1.56951;1.15257;196;196;196
1.99839;1.55991;1.15327;196;196;196
1.99917;1.55024;1.15405;196;196;196
1.99895;1.54053;1.15475;196;196;196
1.99868;1.53076;1.15544;196;196;196
1.99839;1.52093;1.15614;197;197;197
1.99805;1.51104;1.15684;196;196;196
1.99865;1.50107;1.15763;198;198;198
1.99921;1.49103;1.15842;196;196;196
1.99875;1.48097;1.15912;198;198;198
1.99825;1.47085;1.15983;197;197;197
1.99869;1.46062;1.16062;199;199;199
1.99908;1.45033;1.16141;198;198;198
1.99845;1.44003;1.16212;196;196;196
1.99876;1.42962;1.16291;199;199;199
1.99902;1.41914;1.16371;198;198;198
1.99875;1.40862;1.16446;202;202;202
1.99892;1.39801;1.16526;200;200;200
1.99856;1.38738;1.16601;203;203;203
1.99911;1.3766;1.16686;201;201;201
1.99866;1.36583;1.16761;202;202;202
1.99911;1.35492;1.16846;203;203;203
1.99856;1.34403;1.16921;203;203;203
1.99891;1.33299;1.17006;204;204;204
1.99874;1.32192;1.17086;204;204;204
1.999;1.31074;1.17171;204;204;204
1.9992;1.29949;1.17256;205;205;205
1.99886;1.28823;1.17336;206;206;206
1.99895;1.27684;1.17421;206;206;206
1.999;1.26538;1.17505;205;205;205
1.99946;1.2538;1.17595;205;205;205
1.9989;1.24226;1.17675;205;205;205
1.99924;1.23054;1.17765;205;205;205
1.99905;1.2188;1.1785;206;206;206
1.99927;1.20694;1.17939;207;207;207
1.99895;1.19506;1.18024;207;207;207
1.99905;1.18305;1.18113;206;206;206
1.99908;1.17097;1.18203;204;204;204
1.99905;1.15881;1.18292;205;205;205
1.99896;1.14658;1.18382;206;206;206
1.99975;1.13412;1.18481;206;206;206
1.99952;1.12175;1.1857;206;206;206
1.99922;1.1093;1.18659;206;206;206
1.99933;1.09669;1.18753;207;207;207
1.99937;1.08401;1.18847;206;206;206
1.99982;1.07117;1.18946;206;206;206
1.9997;1.05834;1.1904;207;207;207
1.99952;1.04543;1.19133;206;206;206
1.99974;1.03235;1.19232;206;206;206
1.99941;1.0193;1.19325;206;206;206
1.99994;1.00597;1.19428;206;206;206
1.99945;0.992764;1.19521;206;206;206
1.99983;0.979273;1.19624;206;206;206
1.99964;0.965812;1.19722;205;205;205
1.99986;0.952162;1.19824;204;204;204
1.99998;0.938434;1.19927;205;205;205
2.00003;0.924625;1.20029;205;205;205
1.99951;0.910857;1.20126;205;205;205
1.99985;0.896774;1.20233;207;207;207
2.0001;0.882607;1.2034;206;206;206
2.00025;0.868359;1.20446;207;207;207
2.00031;0.854031;1.20553;206;206;206
2.00028;0.839622;1.20659;204;204;204
2.00016;0.825133;1.20764;207;207;207
1.99994;0.810564;1.2087;206;206;206
2.00055;0.795642;1.20986;208;208;208
2.00014;0.780914;1.2109;206;206;206
2.00055;0.765823;1.21206;207;207;207
2.0004;0.750791;1.21315;206;206;206
2.0006;0.735533;1.2143;207;207;207
2.00024;0.72034;1.21538;209;209;209
2.0007;0.704764;1.21657;211;211;211
2.00059;0.689255;1.21771;208;208;208
2.00037;0.673665;1.21884;210;210;210
2.00096;0.657676;1.22007;207;207;207
2.00051;0.641922;1.22119;207;207;207
2.00087;0.62576;1.22242;207;207;207
2.00112;0.609511;1.22364;206;206;206
2.00124;0.593176;1.22486;209;209;209
2.00125;0.576755;1.22607;208;208;208
2.00113;0.560251;1.22728;208;208;208
2.0009;0.543663;1.22848;209;209;209
2.00099;0.526815;1.22973;207;207;207
2.00096;0.509881;1.23098;207;207;207
2.00126;0.492678;1.23227;207;207;207
2.00142;0.47539;1.23356;205;205;205
2.00145;0.458012;1.23485;204;204;204
2.00135;0.440549;1.23613;205;205;205
2.00157;0.422809;1.23746;204;204;204
2.0012;0.405177;1.23873;203;203;203
2.00158;0.387067;1.2401;202;202;202
2.00183;0.368866;1.24146;202;202;202
2.00193;0.350577;1.24282;205;205;205
2.00189;0.332201;1.24417;205;205;205
2.00171;0.313741;1.24552;203;203;203
2.00182;0.294983;1.24691;205;205;205
2.00178;0.276141;1.2483;204;204;204
2.00203;0.256995;1.24973;206;206;206
2.00213;0.237761;1.25116;204;204;204
2.00207;0.21844;1.25258;203;203;203
2.00229;0.198808;1.25405;205;205;205
2.00191;0.179316;1.25545;205;205;205
2.00225;0.159283;1.25696;205;205;205
2.00241;0.139162;1.25846;204;204;204
2.00242;0.11895;1.25995;203;203;203
2.00268;0.0984182;1.26149;202;202;202
2.00278;0.0777967;1.26302;204;204;204
2.00271;0.057085;1.26455;204;204;204
2.00289;0.0360477;1.26611;204;204;204
2.00289;0.0149219;1.26767;205;205;205
2.00272;-0.00629291;1.26922;205;205;205
2.00321;-0.0280918;1.27088;205;205;205
2.00352;-0.0499828;1.27252;204;204;204
2.00322;-0.0717052;1.27409;207;207;207
2.00358;-0.0940299;1.27577;207;207;207
2.00333;-0.116183;1.27739;208;208;208
2.00331;-0.138681;1.27904;208;208;208
2.00351;-0.161532;1.28075;209;209;209
2.00351;-0.184469;1.28244;209;209;209
2.00373;-0.207765;1.28418;209;209;209
2.00375;-0.231148;1.28591;212;212;212
2.00397;-0.254891;1.28768;210;210;210
2.00399;-0.278721;1.28944;211;211;211
2.00381;-0.302637;1.29119;210;210;210
2.00422;-0.327203;1.29304;210;210;210
2.00402;-0.351571;1.29482;209;209;209
2.0044;-0.376596;1.2967;209;209;209
2.00417;-0.401421;1.29851;207;207;207
2.00413;-0.426623;1.30036;205;205;205
2.00425;-0.452199;1.30226;196;196;196
2.00455;-0.478159;1.30421;189;189;189
2.00462;-0.504206;1.30613;184;184;184
2.00485;-0.53064;1.3081;180;180;180
2.00485;-0.557161;1.31006;178;178;178
2.005;-0.58407;1.31206;174;174;174
2.00492;-0.611064;1.31405;172;172;172
2.00536;-0.638761;1.31613;169;169;169
2.00519;-0.666236;1.31814;167;167;167
2.00516;-0.694107;1.32019;165;165;165
2.00562;-0.722693;1.32235;162;162;162
2.00547;-0.751049;1.32442;161;161;161
2.00545;-0.779807;1.32654;158;158;158
2.00554;-0.808971;1.3287;156;156;156
2.00574;-0.838544;1.3309;153;153;153
2.00604;-0.868526;1.33314;153;153;153
2.00609;-0.898597;1.33537;150;150;150
2.00588;-0.928752;1.33757;148;148;148
2.00612;-0.959652;1.33988;145;145;145
2.0061;-0.99064;1.34216;142;142;142
2.00651;-1.02238;1.34454;141;141;141
2.0063;-1.05387;1.34684;140;140;140
2.00686;-1.08647;1.3493;142;142;142
2.00645;-1.11846;1.35162;169;169;169
2.0068;-1.15157;1.3541;192;192;192
2.00686;-1.18477;1.35655;192;192;192
2.00698;-1.2184;1.35904;192;192;192
2.00714;-1.25246;1.36157;191;191;191
2.00735;-1.28695;1.36414;190;190;190
2.00727;-1.32154;1.36668;187;187;187
2.00722;-1.35655;1.36926;185;185;185
2.00721;-1.39201;1.37188;181;181;181
2.00689;-1.42755;1.37447;175;175;175
2.00693;-1.46389;1.37715;170;170;170
2.00729;-1.50104;1.37993;161;161;161
2.00735;-1.53829;1.38268;154;154;154
2.00772;-1.57634;1.38552;145;145;145
2.00715;-1.61374;1.38823;137;137;137
2.00751;-1.65271;1.39114;129;129;129
2.00816;-1.69251;1.39413;111;111;111
2.00848;-1.73239;1.39711;61;61;61
1.95813;-1.7095;1.3909;15;15;15
1.92684;-1.70969;1.38811;14;14;14
1.89569;-1.70959;1.38531;14;14;14
1.86467;-1.70921;1.3825;15;15;15
1.83497;-1.71008;1.3799;15;15;15
1.80481;-1.70992;1.37719;16;16;16
1.77479;-1.70948;1.37446;16;16;16
1.74606;-1.71033;1.37195;16;16;16
1.71687;-1.71013;1.36932;16;16;16
1.68783;-1.70968;1.36668;17;17;17
1.66005;-1.71055;1.36425;17;17;17
1.63238;-1.71117;1.36182;17;17;17
1.60429;-1.71074;1.35927;17;17;17
1.58018;-1.71567;1.35747;12;12;12
1.61435;-1.8064;1.36723;4;4;4
1.69944;-1.97503;1.3873;3;3;3
1.72926;-2.0637;1.39652;1;1;1
1.72376;-2.09993;1.3987;1;1;1
1.69485;-2.10029;1.39613;2;2;2
1.66609;-2.10039;1.39356;3;3;3
1.63746;-2.10025;1.39098;5;5;5
1.60898;-2.09985;1.3884;5;5;5
1.5842;-2.10501;1.38656;5;5;5
1.71356;-2.36394;1.41726;1;1;1
1.68956;-2.37286;1.41577;1;1;1
1.67551;-2.39829;1.41639;1;1;1
1.65448;-2.41192;1.41551;2;2;2
1.65335;-2.45985;1.41894;2;2;2
1.63071;-2.47074;1.41772;2;2;2
1.6019;-2.47045;1.41511;4;4;4
1.5808;-2.4835;1.41418;8;8;8
1.66909;-2.69553;1.43774;15;15;15
1.64372;-2.70287;1.43601;24;24;24
1.62119;-2.71515;1.4349;38;38;38
1.59959;-2.72898;1.43398;37;37;37
1.58071;-2.74782;1.43368;36;36;36
1.56446;-2.77171;1.43398;33;33;33
1.55076;-2.80069;1.43489;30;30;30
1.5439;-2.84348;1.43744;36;36;36
1.78369;-3.38385;1.49881;59;59;59
1.9361;-3.75929;1.54018;57;57;57
1.82187;-3.59256;1.51763;48;48;48
1.97898;-3.98918;1.56099;71;71;71
1.94473;-3.98948;1.55794;79;79;79
1.91068;-3.98951;1.55489;83;83;83
1.87722;-3.99017;1.55194;85;85;85
1.84355;-3.98969;1.54888;90;90;90
1.81047;-3.98985;1.54593;99;99;99
1.68307;-3.77558;1.51869;57;57;57
1.55873;-3.56192;1.49178;6;6;6
1.55208;-3.61576;1.49516;2;2;2
1.55229;-3.6866;1.5004;1;1;1
1.53513;-3.71718;1.50112;3;3;3
1.5045;-3.71534;1.49824;5;5;5
1.51509;-3.81406;1.50647;1;1;1
1.52818;-3.92107;1.51554;9;9;9
1.50288;-3.93342;1.51418;14;14;14
1.47763;-3.94561;1.51282;17;17;17
1.45245;-3.95763;1.51145;25;25;25
1.42769;-3.9704;1.51017;29;29;29
1.40605;-3.99119;1.50976;32;32;32
1.37699;-3.9918;1.5072;38;38;38
1.19149;-3.56217;1.45887;13;13;13
1.18149;-3.60831;1.46138;3;3;3
1.18192;-3.68466;1.46705;2;2;2
1.18214;-3.76198;1.47278;2;2;2
1.18215;-3.8403;1.47856;2;2;2
1.18226;-3.92053;1.48448;2;2;2
1.17904;-3.99252;1.48951;27;27;27
1.15137;-3.99162;1.48696;52;52;52
1.12447;-3.99239;1.48461;61;61;61
1.0664;-3.89484;1.4722;50;50;50
1.00876;-3.79499;1.45966;42;42;42
0.985214;-3.80147;1.45803;36;36;36
0.968864;-3.83106;1.45875;30;30;30
0.954098;-3.86616;1.46002;29;29;29
0.951597;-3.94314;1.46547;37;37;37
0.815724;-3.56375;1.42529;23;23;23
0.791929;-3.56267;1.42308;23;23;23
0.768821;-3.56332;1.42106;23;23;23
0.751312;-3.58351;1.42098;7;7;7
0.750946;-3.66644;1.42706;1;1;1
0.710178;-3.60108;1.41858;10;10;10
0.686988;-3.59936;1.41638;36;36;36
0.668846;-3.61632;1.416;4;4;4
0.642522;-3.60116;1.41252;14;14;14
0.619779;-3.59904;1.41033;38;38;38
0.599762;-3.60717;1.40913;23;23;23
0.593363;-3.67096;1.41327;2;2;2
0.590664;-3.75176;1.41899;1;1;1
0.625229;-3.99355;1.43993;24;24;24
0.602352;-3.99403;1.43791;41;41;41
0.579402;-3.99343;1.43581;57;57;57
0.557023;-3.99461;1.43389;62;62;62
0.51611;-3.91016;1.42399;58;58;58
0.478226;-3.83591;1.41512;45;45;45
0.431633;-3.71669;1.40214;42;42;42
0.38234;-3.57908;1.38757;28;28;28
0.380161;-3.66801;1.39393;1;1;1
0.38048;-3.77224;1.40165;1;1;1
0.329198;-3.61493;1.38545;16;16;16
0.30913;-3.61398;1.38358;45;45;45
0.29206;-3.62823;1.3831;8;8;8
0.276065;-3.64814;1.38313;8;8;8
0.25661;-3.64883;1.38144;25;25;25
0.238961;-3.65901;1.38061;3;3;3
0.217565;-3.64707;1.37781;30;30;30
0.200421;-3.659;1.37715;8;8;8
0.179672;-3.64878;1.37454;15;15;15
0.160666;-3.64807;1.37278;25;25;25
0.136779;-3.61555;1.36824;15;15;15
0.117986;-3.61369;1.36642;46;46;46
0.100337;-3.61846;1.36519;9;9;9
0.0799386;-3.60392;1.36229;16;16;16
0.0615552;-3.6018;1.36048;44;44;44
0.0435707;-3.60152;1.35885;37;37;37
0.0208209;-3.5655;1.35415;92;92;92
0.00318701;-3.56506;1.35254;112;112;112
-0.0101901;-3.59638;1.35365;36;36;36
-0.0104535;-3.73192;1.36363;11;11;11
-0.010186;-3.87813;1.37444;11;11;11
-0.0142406;-3.9954;1.38273;57;57;57
-0.0325979;-3.99574;1.38111;89;89;89
-0.0509503;-3.99504;1.37941;110;110;110
-0.0689703;-3.9962;1.37788;123;123;123
-0.0870904;-3.99535;1.37619;132;132;132
-0.10489;-3.99636;1.37467;133;133;133
-0.122779;-3.99537;1.37299;130;130;130
1.99789;1.76825;1.12651;191;191;191
1.99839;1.75984;1.12714;184;184;184
1.99886;1.75138;1.12777;192;192;192
1.99833;1.74281;1.12833;187;187;187
1.99777;1.73419;1.12888;191;191;191
1.99817;1.72557;1.12952;189;189;189
1.99854;1.71691;1.13016;194;194;194
1.99889;1.70818;1.1308;192;192;192
1.99872;1.69939;1.1314;194;194;194
1.99853;1.69054;1.132;192;192;192
1.99782;1.68162;1.13257;191;191;191
1.99806;1.67269;1.13321;192;192;192
1.99826;1.6637;1.13386;192;192;192
1.99844;1.65466;1.13451;196;196;196
1.99859;1.64557;1.13516;191;191;191
1.99871;1.63641;1.13581;192;192;192
1.9988;1.62721;1.13646;196;196;196
1.99885;1.61794;1.13711;195;195;195
1.99888;1.60862;1.13777;195;195;195
1.99887;1.59925;1.13842;194;194;194
1.99883;1.58982;1.13908;196;196;196
1.99876;1.58033;1.13973;195;195;195
1.99865;1.57079;1.14039;196;196;196
1.9985;1.56119;1.14105;195;195;195
1.99833;1.55153;1.14171;197;197;197
1.99811;1.54182;1.14238;196;196;196
1.99834;1.53204;1.14308;198;198;198
1.99854;1.5222;1.14379;197;197;197
1.99919;1.51228;1.14453;199;199;199
1.99882;1.50233;1.1452;195;195;195
1.99842;1.49233;1.14586;198;198;198
1.99846;1.48224;1.14657;199;199;199
1.99895;1.47208;1.14733;198;198;198
1.99891;1.46187;1.14804;198;198;198
1.99834;1.45163;1.14871;199;199;199
1.9987;1.44128;1.14946;200;200;200
1.99901;1.43086;1.15022;199;199;199
1.9988;1.4204;1.15093;199;199;199
1.99902;1.40986;1.15169;197;197;197
1.99872;1.39928;1.1524;199;199;199
1.99886;1.3886;1.15316;200;200;200
1.99895;1.37786;1.15392;199;199;199
1.9985;1.36709;1.15464;201;201;201
1.99897;1.35618;1.15544;201;201;201
1.99891;1.34524;1.1562;204;204;204
1.99879;1.33423;1.15696;201;201;201
1.99911;1.32312;1.15777;203;203;203
1.9989;1.31198;1.15853;203;203;203
1.99912;1.30073;1.15933;203;203;203
1.99927;1.2894;1.16014;205;205;205
1.99889;1.27807;1.1609;205;205;205
1.99894;1.26661;1.16171;206;206;206
1.99894;1.25508;1.16251;206;206;206
1.99935;1.24342;1.16336;206;206;206
1.99874;1.23181;1.16413;204;204;204
1.99904;1.22001;1.16498;205;205;205
1.99928;1.20814;1.16583;206;206;206
1.99945;1.19619;1.16668;207;207;207
1.99956;1.18417;1.16753;205;205;205
1.99961;1.17208;1.16838;207;207;207
1.99959;1.15991;1.16923;206;206;206
1.99951;1.14768;1.17008;206;206;206
1.99936;1.13537;1.17093;205;205;205
1.99914;1.12299;1.17178;207;207;207
1.99933;1.11045;1.17267;206;206;206
1.99945;1.09784;1.17356;207;207;207
1.9995;1.08515;1.17445;205;205;205
1.99948;1.07239;1.17534;203;203;203
1.99939;1.05956;1.17624;205;205;205
1.99921;1.04665;1.17712;205;205;205
1.99945;1.03356;1.17806;205;205;205
1.9996;1.0204;1.17899;206;206;206
1.99968;1.00717;1.17993;206;206;206
1.99967;0.993851;1.18086;206;206;206
2.00006;0.980351;1.18184;203;203;203
1.99989;0.966881;1.18276;205;205;205
1.99964;0.953335;1.18369;203;203;203
2.00025;0.939485;1.18471;205;205;205
1.99983;0.925784;1.18564;204;204;204
1.9998;0.91189;1.18661;206;206;206
1.99968;0.897916;1.18757;205;205;205
1.99994;0.883743;1.18859;204;204;204
2.0001;0.869487;1.1896;206;206;206
2.00018;0.855149;1.19061;207;207;207
2.00016;0.840733;1.19162;207;207;207
2.00005;0.826234;1.19262;205;205;205
1.99984;0.811658;1.19362;206;206;206
2.00047;0.796727;1.19472;206;206;206
2.00007;0.781988;1.19572;206;206;206
2.00049;0.766887;1.19681;207;207;207
2.00035;0.751846;1.19785;207;207;207
2.00057;0.736578;1.19894;210;210;210
2.00068;0.721224;1.20002;209;209;209
2.00069;0.705788;1.20111;207;207;207
2.00059;0.690268;1.20218;207;207;207
2.00038;0.674667;1.20326;208;208;208
2.00098;0.658666;1.20443;209;209;209
2.00055;0.642901;1.20549;207;207;207
2.00092;0.626727;1.20666;208;208;208
2.00117;0.610466;1.20782;209;209;209
2.00131;0.594118;1.20897;208;208;208
2.00133;0.577685;1.21013;208;208;208
2.00122;0.561167;1.21127;207;207;207
2.001;0.544568;1.21241;207;207;207
2.0011;0.527706;1.2136;207;207;207
2.00108;0.510758;1.21479;205;205;205
2.00139;0.493542;1.21602;206;206;206
2.00111;0.476423;1.21719;204;204;204
2.00115;0.459036;1.21841;204;204;204
2.00151;0.44137;1.21968;204;204;204
2.00129;0.423808;1.22089;206;206;206
2.00138;0.405967;1.22215;204;204;204
2.00177;0.387843;1.22345;205;205;205
2.00202;0.369627;1.22475;202;202;202
2.00214;0.351321;1.22604;202;202;202
2.00211;0.332929;1.22732;201;201;201
2.00193;0.314453;1.2286;202;202;202
2.00161;0.295891;1.22987;203;203;203
2.00202;0.276818;1.23124;204;204;204
2.00227;0.257657;1.2326;203;203;203
2.00194;0.238625;1.23391;203;203;203
2.00232;0.219067;1.23531;204;204;204
2.00255;0.199418;1.2367;203;203;203
2.00219;0.179907;1.23804;204;204;204
2.00252;0.159858;1.23947;203;203;203
2.0027;0.139717;1.24089;204;204;204
2.00271;0.119488;1.24231;204;204;204
2.00255;0.099172;1.24372;204;204;204
2.00266;0.0785314;1.24517;203;203;203
2.00259;0.0578055;1.24662;204;204;204
2.00278;0.0367511;1.24811;203;203;203
2.00279;0.0156055;1.24959;204;204;204
2.00304;-0.00587291;1.25111;205;205;205
2.00312;-0.0274396;1.25263;206;206;206
2.00301;-0.0490949;1.25413;206;206;206
2.00314;-0.0710916;1.25569;206;206;206
2.00309;-0.0931762;1.25723;207;207;207
2.00367;-0.115866;1.25886;207;207;207
2.00324;-0.138124;1.26039;208;208;208
2.00345;-0.160993;1.262;208;208;208
2.00345;-0.18395;1.26361;207;207;207
2.00367;-0.207263;1.26526;210;210;210
2.00409;-0.230936;1.26695;208;208;208
2.00351;-0.254152;1.26853;209;209;209
2.00394;-0.27828;1.27025;210;210;210
2.00416;-0.302497;1.27197;210;210;210
2.00417;-0.3268;1.27367;209;209;209
2.00436;-0.351473;1.27541;209;209;209
2.00436;-0.376238;1.27714;208;208;208
2.00413;-0.401083;1.27886;208;208;208
2.00447;-0.426596;1.28068;207;207;207
2.0046;-0.452196;1.28248;204;204;204
2.0045;-0.477885;1.28427;203;203;203
2.00457;-0.503952;1.2861;201;201;201
2.0048;-0.530409;1.28797;198;198;198
2.0048;-0.55695;1.28983;199;199;199
2.00495;-0.583882;1.29173;195;195;195
2.00487;-0.610899;1.29361;193;193;193
2.00494;-0.638311;1.29554;190;190;190
2.00551;-0.666428;1.29755;188;188;188
2.00547;-0.694323;1.2995;185;185;185
2.00556;-0.722616;1.30149;184;184;184
2.00541;-0.750995;1.30346;182;182;182
2.00574;-0.780098;1.30553;180;180;180
2.00582;-0.809286;1.30758;176;176;176
2.00566;-0.83856;1.30961;174;174;174
2.00596;-0.868569;1.31174;171;171;171
2.006;-0.898662;1.31385;169;169;169
2.00614;-0.929172;1.31599;165;165;165
2.00637;-0.960099;1.31818;161;161;161
2.00633;-0.991108;1.32035;158;158;158
2.00639;-1.02254;1.32255;155;155;155
2.00652;-1.05439;1.32479;155;155;155
2.00672;-1.08667;1.32707;158;158;158
2.00665;-1.11904;1.32933;181;181;181
2.00664;-1.15183;1.33162;192;192;192
2.00703;-1.18539;1.334;191;191;191
2.00713;-1.21905;1.33637;193;193;193
2.00728;-1.25313;1.33876;192;192;192
2.00748;-1.28766;1.3412;191;191;191
2.00738;-1.32227;1.34361;186;186;186
2.00667;-1.3566;1.34595;182;182;182
2.00665;-1.39208;1.34843;180;180;180
2.00697;-1.42837;1.351;175;175;175
2.00698;-1.46473;1.35355;171;171;171
2.00734;-1.50192;1.35618;161;161;161
2.00737;-1.53918;1.35879;153;153;153
2.0071;-1.57653;1.36138;145;145;145
2.00777;-1.61544;1.36416;135;135;135
2.00811;-1.65444;1.36692;124;124;124
2.0075;-1.69276;1.36955;106;106;106
2.0072;-1.73192;1.37227;58;58;58
1.95681;-1.709;1.36637;15;15;15
1.9255;-1.70918;1.36371;13;13;13
1.89433;-1.70907;1.36105;14;14;14
1.86448;-1.71021;1.35859;14;14;14
1.83357;-1.70954;1.35591;15;15;15
1.80397;-1.71013;1.35343;15;15;15
1.7745;-1.71046;1.35094;16;16;16
1.74459;-1.70975;1.34834;16;16;16
1.71596;-1.71033;1.34595;16;16;16
1.68745;-1.71065;1.34354;17;17;17
1.65852;-1.70993;1.34102;17;17;17
1.63083;-1.71053;1.33871;16;16;16
1.60328;-1.71089;1.33639;16;16;16
1.58024;-1.71742;1.33488;12;12;12
1.61385;-1.8074;1.34404;4;4;4
1.68329;-1.95274;1.36013;2;2;2
1.72019;-2.05191;1.37021;1;1;1
1.71791;-2.093;1.37289;2;2;2
1.69323;-2.09985;1.37127;2;2;2
1.66444;-2.09993;1.36882;3;3;3
1.6358;-2.09977;1.36637;5;5;5
1.60832;-2.10101;1.36412;5;5;5
1.5825;-2.10451;1.36216;5;5;5
1.69474;-2.33537;1.38788;1;1;1
1.67188;-2.34585;1.38667;2;2;2
1.66537;-2.38375;1.38877;2;2;2
1.6542;-2.41409;1.38994;2;2;2
1.65498;-2.46542;1.3936;2;2;2
1.62891;-2.4704;1.39173;3;3;3
1.60009;-2.47009;1.38925;4;4;4
1.58038;-2.48568;1.38866;6;6;6
1.66536;-2.6919;1.41033;15;15;15
1.64046;-2.70007;1.40878;25;25;25
1.61746;-2.71147;1.40762;38;38;38
1.59632;-2.72614;1.40685;37;37;37
1.57743;-2.74497;1.40656;36;36;36
1.56072;-2.76798;1.40674;33;33;33
1.54747;-2.79782;1.4077;30;30;30
1.53929;-2.83801;1.40982;35;35;35
1.72941;-3.27862;1.45685;49;49;49
1.84643;-3.58073;1.48796;47;47;47
1.91404;-3.78788;1.50822;53;53;53
1.97682;-3.98964;1.52769;67;67;67
1.94213;-3.98904;1.52469;73;73;73
1.90846;-3.98993;1.52188;75;75;75
1.87457;-3.98968;1.51898;80;80;80
1.84128;-3.99005;1.51617;89;89;89
1.80818;-3.99018;1.51336;97;97;97
1.68079;-3.77574;1.4875;42;42;42
1.55801;-3.56547;1.46233;5;5;5
1.54672;-3.60861;1.46438;3;3;3
1.51775;-3.61055;1.46205;19;19;19
1.48856;-3.61138;1.45962;7;7;7
1.46361;-3.62188;1.45823;12;12;12
1.46143;-3.68803;1.46268;1;1;1
1.46242;-3.76326;1.46803;2;2;2
1.5233;-3.99133;1.48917;22;22;22
1.49282;-3.99093;1.48655;38;38;38
1.46287;-3.99122;1.48402;52;52;52
1.4331;-3.9913;1.48149;57;57;57
1.40385;-3.99209;1.47905;57;57;57
1.37443;-3.99176;1.47652;51;51;51
1.18901;-3.56182;1.43064;9;9;9
1.18161;-3.61529;1.43375;3;3;3
1.18197;-3.69167;1.43913;2;2;2
1.18213;-3.76903;1.44455;2;2;2
1.18208;-3.84738;1.45003;2;2;2
1.18243;-3.92856;1.45574;4;4;4
1.17638;-3.99229;1.45969;35;35;35
1.149;-3.99228;1.45736;62;62;62
1.12178;-3.9921;1.45502;69;69;69
1.03242;-3.79626;1.43371;34;34;34
0.944921;-3.59969;1.4125;22;22;22
0.923932;-3.61146;1.41153;11;11;11
0.918579;-3.67428;1.41547;1;1;1
0.915078;-3.74456;1.42009;1;1;1
0.932061;-3.88576;1.43142;20;20;20
0.813092;-3.56301;1.3987;23;23;23
0.789826;-3.56378;1.39677;24;24;24
0.766439;-3.56347;1.39476;23;23;23
0.750992;-3.59115;1.39538;5;5;5
0.738788;-3.63095;1.39712;2;2;2
0.707754;-3.60118;1.3924;13;13;13
0.684803;-3.60038;1.39039;40;40;40
0.66811;-3.62297;1.39055;3;3;3
0.640552;-3.60307;1.38681;12;12;12
0.617557;-3.59998;1.38463;36;36;36
0.596128;-3.60244;1.38298;27;27;27
0.586967;-3.65488;1.38587;3;3;3
0.584296;-3.73569;1.3913;1;1;1
0.610848;-3.94346;1.4081;9;9;9
0.562643;-3.83294;1.39626;22;22;22
0.541811;-3.83881;1.39489;24;24;24
0.481033;-3.66412;1.37749;23;23;23
0.459637;-3.66297;1.37559;13;13;13
0.443063;-3.68359;1.37562;4;4;4
0.416673;-3.65749;1.37154;28;28;28
0.380996;-3.58453;1.3634;26;26;26
0.380492;-3.68207;1.37018;1;1;1
0.361231;-3.68803;1.36896;3;3;3
0.326464;-3.61366;1.36079;25;25;25
0.306579;-3.61364;1.3591;43;43;43
0.292356;-3.64317;1.35995;4;4;4
0.273493;-3.64777;1.35867;13;13;13
0.253862;-3.64748;1.35697;22;22;22
0.237389;-3.66436;1.35675;3;3;3
0.215149;-3.64759;1.35368;35;35;35
0.198963;-3.66527;1.35354;4;4;4
0.176928;-3.64735;1.35041;19;19;19
0.158232;-3.64853;1.3489;22;22;22
0.134203;-3.61501;1.34451;18;18;18
0.115557;-3.61409;1.34286;47;47;47
0.0977573;-3.61789;1.34161;9;9;9
0.0775047;-3.60428;1.33893;19;19;19
0.0589796;-3.60117;1.33713;47;47;47
0.0413994;-3.60377;1.33582;37;37;37
0.0182595;-3.56482;1.33112;103;103;103
0.000882598;-3.56628;1.32974;111;111;111
-0.0106374;-3.61208;1.33197;24;24;24
-0.010403;-3.75249;1.34181;10;10;10
-0.0101488;-3.89971;1.35214;16;16;16
-0.0168691;-3.99576;1.35829;67;67;67
-0.0353416;-3.99511;1.35667;92;92;92
-0.0534754;-3.99632;1.35521;112;112;112
-0.0717142;-3.99552;1.3536;124;124;124
-0.0896268;-3.99658;1.35215;132;132;132
