1.019285768270492554e-01 1.018550768494606018e-01 1.017813608050346375e-01 1.017071232199668884e-01 1.016336157917976379e-01 1.015599071979522705e-01 1.014866232872009277e-01 1.014131233096122742e-01 1.013397350907325745e-01 1.012309417128562927e-01 1.011086553335189819e-01 1.009865030646324158e-01 1.008646488189697266e-01 1.007430925965309143e-01 1.006218269467353821e-01 1.005019247531890869e-01 1.003812402486801147e-01 1.002606898546218872e-01 1.001407280564308167e-01 1.000210642814636230e-01 1.004691123962402344e-01 1.003980040550231934e-01 1.003257632255554199e-01 1.002542451024055481e-01 1.001828312873840332e-01 1.001112088561058044e-01 1.000399962067604065e-01 1.036314293742179871e-01 1.035158708691596985e-01 1.034017056226730347e-01 1.032864898443222046e-01 1.031720191240310669e-01 1.030581220984458923e-01 1.015234515070915222e-01 1.019824072718620300e-01 1.024450212717056274e-01 1.026040837168693542e-01 1.024911180138587952e-01 1.023785620927810669e-01 1.022665724158287048e-01 1.021541878581047058e-01 1.020417362451553345e-01 1.019304841756820679e-01 1.018193140625953674e-01 1.017080694437026978e-01 1.015976965427398682e-01 1.014864668250083923e-01 1.013757884502410889e-01 1.012653559446334839e-01 1.011559367179870605e-01 1.010455191135406494e-01 1.009359583258628845e-01 1.008270978927612305e-01 1.007181629538536072e-01 1.006088480353355408e-01 1.005008444190025330e-01 1.003924608230590820e-01 1.002840101718902588e-01 1.001770123839378357e-01 1.000690162181854248e-01 1.009179279208183289e-01 1.008263230323791504e-01 1.007330268621444702e-01 1.006351113319396973e-01 1.005381569266319275e-01 1.004409343004226685e-01 1.003435850143432617e-01 1.002467349171638489e-01 1.001499146223068237e-01 1.000534370541572571e-01 1.000111401081085205e-01 1.000511422753334045e-01 1.032433658838272095e-01 1.032043471932411194e-01 1.031655222177505493e-01 1.031265556812286377e-01 1.030877903103828430e-01 1.030493751168251038e-01 1.002087146043777466e-01 1.006609275937080383e-01 1.011165678501129150e-01 1.015770658850669861e-01 1.020410656929016113e-01 1.025103181600570679e-01 1.027094125747680664e-01 1.026220843195915222e-01 1.025350615382194519e-01 1.003165543079376221e-01 1.008188799023628235e-01 1.013257876038551331e-01 1.018382608890533447e-01 1.021024659276008606e-01 1.000534519553184509e-01 1.002669781446456909e-01 1.004825085401535034e-01 1.006983518600463867e-01 1.005773469805717468e-01 1.011338159441947937e-01 1.013523861765861511e-01 1.014173626899719238e-01 1.013325229287147522e-01 1.012476757168769836e-01 1.011632755398750305e-01 1.000667288899421692e-01 1.006424501538276672e-01 1.009101569652557373e-01 1.008257046341896057e-01 1.007418558001518250e-01 1.006582975387573242e-01 1.005739569664001465e-01 1.004903689026832581e-01 1.004075407981872559e-01 1.003240719437599182e-01 1.002409085631370544e-01 1.001580283045768738e-01 1.000752821564674377e-01 1.015633717179298401e-01 1.015259250998497009e-01 1.014881953597068787e-01
1.001837477087974548e-01 1.000876650214195251e-01 1.020552441477775574e-01 1.019812375307083130e-01 1.019070222973823547e-01 1.018329188227653503e-01 1.017585992813110352e-01 1.016856580972671509e-01 1.016115546226501465e-01 1.015378832817077637e-01 1.014646217226982117e-01 1.013911589980125427e-01 1.013181135058403015e-01 1.012278124690055847e-01 1.011060029268264771e-01 1.009841710329055786e-01 1.008621677756309509e-01 1.007407680153846741e-01 1.006191968917846680e-01 1.004985347390174866e-01 1.003786250948905945e-01 1.002583876252174377e-01 1.001381278038024902e-01 1.000183150172233582e-01 1.004478558897972107e-01 1.003764718770980835e-01 1.003048792481422424e-01 1.002330854535102844e-01 1.001613959670066833e-01 1.000901088118553162e-01 1.000082418322563171e-01 1.022772490978240967e-01 1.027414873242378235e-01 1.032110154628753662e-01 1.033288314938545227e-01 1.032142639160156250e-01 1.031007617712020874e-01 1.029862165451049805e-01 1.028727293014526367e-01 1.027593389153480530e-01 1.026458665728569031e-01 1.025324910879135132e-01 1.024201661348342896e-01 1.023072823882102966e-01 1.021954491734504700e-01 1.020835414528846741e-01 1.019720360636711121e-01 1.018599793314933777e-01 1.017486527562141418e-01 1.016381904482841492e-01 1.015273407101631165e-01 1.014165729284286499e-01 1.013066768646240234e-01 1.011963933706283569e-01 1.010860428214073181e-01 1.009770110249519348e-01 1.008674427866935730e-01 1.007579565048217773e-01 1.006499454379081726e-01 1.005409359931945801e-01 1.004318520426750183e-01 1.003240719437599182e-01 1.002163812518119812e-01 1.001089140772819519e-01 1.000010669231414795e-01 1.007466539740562439e-01 1.006485596299171448e-01 1.005514264106750488e-01 1.004541739821434021e-01 1.003567948937416077e-01 1.002599224448204041e-01 1.001632288098335266e-01 1.000668779015541077e-01 1.002366095781326294e-01 1.000218987464904785e-01 1.000653505325317383e-01 1.000083908438682556e-01 1.013853922486305237e-01 1.018476784229278564e-01 1.023151502013206482e-01 1.027859300374984741e-01 1.030592545866966248e-01 1.030206978321075439e-01 1.000759303569793701e-01 1.005753427743911743e-01 1.010802686214447021e-01 1.015900969505310059e-01 1.021052524447441101e-01 1.026251763105392456e-01 1.001898199319839478e-01 1.004052907228469849e-01 1.006212234497070312e-01 1.002806350588798523e-01 1.009396836161613464e-01 1.012738421559333801e-01 1.014940068125724792e-01 1.017134711146354675e-01 1.019358709454536438e-01 1.020336374640464783e-01 1.013370677828788757e-01 1.018617227673530579e-01 1.007322520017623901e-01 1.015732884407043457e-01 1.016051024198532104e-01 1.015196368098258972e-01 1.014344692230224609e-01 1.013497635722160339e-01 1.012648865580558777e-01 1.011803001165390015e-01 1.010957062244415283e-01 1.010109409689903259e-01 1.009270921349525452e-01 1.008429229259490967e-01 1.007585823535919189e-01 1.006751507520675659e-01 1.005909368395805359e-01 1.005071699619293213e-01 1.004238501191139221e-01 1.003405079245567322e-01
1.001220643520355225e-01 1.007550135254859924e-01 1.006606146693229675e-01 1.005673184990882874e-01 1.002527102828025818e-01 1.003800109028816223e-01 1.002867668867111206e-01 1.001935526728630066e-01 1.001008078455924988e-01 1.000086963176727295e-01 1.017371192574501038e-01 1.016632616519927979e-01 1.015895083546638489e-01 1.015161722898483276e-01 1.014429479837417603e-01 1.013698279857635498e-01 1.012968122959136963e-01 1.012229695916175842e-01 1.011024117469787598e-01 1.009809002280235291e-01 1.008595302700996399e-01 1.007379814982414246e-01 1.006167232990264893e-01 1.004963815212249756e-01 1.003757044672966003e-01 1.002557799220085144e-01 1.001356840133666992e-01 1.000158712267875671e-01 1.004263088107109070e-01 1.003546491265296936e-01 1.002830862998962402e-01 1.002116277813911438e-01 1.001164093613624573e-01 1.000175476074218750e-01 1.038322374224662781e-01 1.037163883447647095e-01 1.036012917757034302e-01 1.034864485263824463e-01 1.033710390329360962e-01 1.032573580741882324e-01 1.031422987580299377e-01 1.030283123254776001e-01 1.029150560498237610e-01 1.028009206056594849e-01 1.026878505945205688e-01 1.025751754641532898e-01 1.024616360664367676e-01 1.023489832878112793e-01 1.022367402911186218e-01 1.021252200007438660e-01 1.020131483674049377e-01 1.019016355276107788e-01 1.017900556325912476e-01 1.016790345311164856e-01 1.015682518482208252e-01 1.014578714966773987e-01 1.013475656509399414e-01 1.012370362877845764e-01 1.011275276541709900e-01 1.010174825787544250e-01 1.009084433317184448e-01 1.007984057068824768e-01 1.006899997591972351e-01 1.005809009075164795e-01 1.004723459482192993e-01 1.003641784191131592e-01 1.002565473318099976e-01 1.001482307910919189e-01 1.000412181019783020e-01 1.006621643900871277e-01 1.005646958947181702e-01 1.002845838665962219e-01 1.003703251481056213e-01 1.002735719084739685e-01 1.001770123839378357e-01 1.000800207257270813e-01 1.003357470035552979e-01 1.002510264515876770e-01 1.001650691032409668e-01 1.000792533159255981e-01 1.001842096447944641e-01 1.000945419073104858e-01 1.000047326087951660e-01 1.018559038639068604e-01 1.023739650845527649e-01 1.001136153936386108e-01 1.003278791904449463e-01 1.005435213446617126e-01 1.007596477866172791e-01 1.006419137120246887e-01 1.011953800916671753e-01 1.014149263501167297e-01 1.016351953148841858e-01 1.018563807010650635e-01 1.020787730813026428e-01 1.023016944527626038e-01 1.005367711186408997e-01 1.026069745421409607e-01 1.008224412798881531e-01 1.016649901866912842e-01 1.023968011140823364e-01 1.023101583123207092e-01 1.022235080599784851e-01 1.021374762058258057e-01 1.020511090755462646e-01 1.019653752446174622e-01 1.018792986869812012e-01 1.017935350537300110e-01 1.017082259058952332e-01 1.016224324703216553e-01 1.015367805957794189e-01 1.014514267444610596e-01 1.013668477535247803e-01 1.012817844748497009e-01 1.011971756815910339e-01 1.011128649115562439e-01 1.010283827781677246e-01 1.000360250473022461e-01 1.008599922060966492e-01
1.005403175950050354e-01 1.004159972071647644e-01 1.002910658717155457e-01 1.001675128936767578e-01 1.000433564186096191e-01 1.010484769940376282e-01 1.009536832571029663e-01 1.004181504249572754e-01 1.007655486464500427e-01 1.006712839007377625e-01 1.005778163671493530e-01 1.004840508103370667e-01 1.003906205296516418e-01 1.002970561385154724e-01 1.002041175961494446e-01 1.001118198037147522e-01 1.000186204910278320e-01 1.014941632747650146e-01 1.014209687709808350e-01 1.013478785753250122e-01 1.012745872139930725e-01 1.012017056345939636e-01 1.011000722646713257e-01 1.009779497981071472e-01 1.008568927645683289e-01 1.007356569170951843e-01 1.006148755550384521e-01 1.004939153790473938e-01 1.003733947873115540e-01 1.002531722187995911e-01 1.001330837607383728e-01 1.000137329101562500e-01 1.000016778707504272e-01 1.003245338797569275e-01 1.002252697944641113e-01 1.001260429620742798e-01 1.000271663069725037e-01 1.000473275780677795e-01 1.038746982812881470e-01 1.037592440843582153e-01 1.036438867449760437e-01 1.035286262631416321e-01 1.034144312143325806e-01 1.032991856336593628e-01 1.031848490238189697e-01 1.030707657337188721e-01 1.029564440250396729e-01 1.028431877493858337e-01 1.027292162179946899e-01 1.026169359683990479e-01 1.025036275386810303e-01 1.023907214403152466e-01 1.022785454988479614e-01 1.021661385893821716e-01 1.020544469356536865e-01 1.019431650638580322e-01 1.018310189247131348e-01 1.017199084162712097e-01 1.016095131635665894e-01 1.014985665678977966e-01 1.013880223035812378e-01 1.012778729200363159e-01 1.011681184172630310e-01 1.010581403970718384e-01 1.009485498070716858e-01 1.008393540978431702e-01 1.007305458188056946e-01 1.000974476337432861e-01 1.005127131938934326e-01 1.004040017724037170e-01 1.002961322665214539e-01 1.001884937286376953e-01 1.000810861587524414e-01 1.005785837769508362e-01 1.004812791943550110e-01 1.003838554024696350e-01 1.000934690237045288e-01 1.001903340220451355e-01 1.000931635499000549e-01 1.004366204142570496e-01 1.003508046269416809e-01 1.000365018844604492e-01 1.001785397529602051e-01 1.000931635499000549e-01 1.000076308846473694e-01 1.002712696790695190e-01 1.001808345317840576e-01 1.000911816954612732e-01 1.000010669231414795e-01 1.017761453986167908e-01 1.019987761974334717e-01 1.022217869758605957e-01 1.018201038241386414e-01 1.026697084307670593e-01 1.000817790627479553e-01 1.009121760725975037e-01 1.017568632960319519e-01 1.026153340935707092e-01 1.027317941188812256e-01 1.026933193206787109e-01 1.026550307869911194e-01 1.026167795062065125e-01 1.025783866643905640e-01 1.025401949882507324e-01 1.025015413761138916e-01 1.024635583162307739e-01 1.024143993854522705e-01 1.023275703191757202e-01 1.022408902645111084e-01 1.021548286080360413e-01 1.020682752132415771e-01 1.019825115799903870e-01 1.008451730012893677e-01 1.013434976339340210e-01 1.017252728343009949e-01 1.003215387463569641e-01 1.002138480544090271e-01 1.000071689486503601e-01 1.002030447125434875e-01
1.003018096089363098e-01 1.001757830381393433e-01 1.000503823161125183e-01 1.005863025784492493e-01 1.004609465599060059e-01 1.003369763493537903e-01 1.002131626009941101e-01 1.000891923904418945e-01 1.014387086033821106e-01 1.012589409947395325e-01 1.005844473838806152e-01 1.011535972356796265e-01 1.010587587952613831e-01 1.009647250175476074e-01 1.008703932166099548e-01 1.007759347558021545e-01 1.006818041205406189e-01 1.005878448486328125e-01 1.004949882626533508e-01 1.004012301564216614e-01 1.003079488873481750e-01 1.002145409584045410e-01 1.001217588782310486e-01 1.000289991497993469e-01 1.012520566582679749e-01 1.011795252561569214e-01 1.010975763201713562e-01 1.009756103157997131e-01 1.008534729480743408e-01 1.007330268621444702e-01 1.006122455000877380e-01 1.004912927746772766e-01 1.003707870841026306e-01 1.002501025795936584e-01 1.001306325197219849e-01 1.000111401081085205e-01 1.000152602791786194e-01 1.002346202731132507e-01 1.001359894871711731e-01 1.000370904803276062e-01 1.000974476337432861e-01 1.000262498855590820e-01 1.039188355207443237e-01 1.038023009896278381e-01 1.036863625049591064e-01 1.035719811916351318e-01 1.034565493464469910e-01 1.033415347337722778e-01 1.032267808914184570e-01 1.031127646565437317e-01 1.029988452792167664e-01 1.028846800327301025e-01 1.027720645070075989e-01 1.026582494378089905e-01 1.025453284382820129e-01 1.024328097701072693e-01 1.023200601339340210e-01 1.022078841924667358e-01 1.020959466695785522e-01 1.019839346408843994e-01 1.018726527690887451e-01 1.017611324787139893e-01 1.016503274440765381e-01 1.015392988920211792e-01 1.003605648875236511e-01 1.008141040802001953e-01 1.012082695960998535e-01 1.010983586311340332e-01 1.009891480207443237e-01 1.008800193667411804e-01 1.007701978087425232e-01 1.006621643900871277e-01 1.005532741546630859e-01 1.003509610891342163e-01 1.003365144133567810e-01 1.002284884452819824e-01 1.001203805208206177e-01 1.000126674771308899e-01 1.001740023493766785e-01 1.003002747893333435e-01 1.002038121223449707e-01 1.000502258539199829e-01 1.000105291604995728e-01 1.004507839679718018e-01 1.003644838929176331e-01 1.002784818410873413e-01 1.001926288008689880e-01 1.001072302460670471e-01 1.000219807028770447e-01 1.004486307501792908e-01 1.003584861755371094e-01 1.001699641346931458e-01 1.001774668693542480e-01 1.000875085592269897e-01 1.027078852057456970e-01 1.030111461877822876e-01 1.029726266860961914e-01 1.029344573616981506e-01 1.028956696391105652e-01 1.028573960065841675e-01 1.028185039758682251e-01 1.027798056602478027e-01 1.027412936091423035e-01 1.027032956480979919e-01 1.026650071144104004e-01 1.026267409324645996e-01 1.025881841778755188e-01 1.025498211383819580e-01 1.017838120460510254e-01 1.002120152115821838e-01 1.006722152233123779e-01 1.000659614801406860e-01 1.006688848137855530e-01 1.012786552309989929e-01 1.001644581556320190e-01 1.003613322973251343e-01 1.005596816539764404e-01 1.007589697837829590e-01 1.009577214717864990e-01
1.007505282759666443e-01 1.006242930889129639e-01 1.004968434572219849e-01 1.003709360957145691e-01 1.002444326877593994e-01 1.001185476779937744e-01 1.006315574049949646e-01 1.005068570375442505e-01 1.003824695944786072e-01 1.002580821514129639e-01 1.001340001821517944e-01 1.000105291604995728e-01 1.014283448457717896e-01 1.007517650723457336e-01 1.000841483473777771e-01 1.014492288231849670e-01 1.013543084263801575e-01 1.012592539191246033e-01 1.011643707752227783e-01 1.010696738958358765e-01 1.009748354554176331e-01 1.008808016777038574e-01 1.007866263389587402e-01 1.006924733519554138e-01 1.005983501672744751e-01 1.005051657557487488e-01 1.004118472337722778e-01 1.003182381391525269e-01 1.002254188060760498e-01 1.001321598887443542e-01 1.000395342707633972e-01 1.009729653596878052e-01 1.008516103029251099e-01 1.007297709584236145e-01 1.006091535091400146e-01 1.004886776208877563e-01 1.003681719303131104e-01 1.002479568123817444e-01 1.001275703310966492e-01 1.000077798962593079e-01 1.000283882021903992e-01 1.001450195908546448e-01 1.000464111566543579e-01 1.001473143696784973e-01 1.000754386186599731e-01 1.000045761466026306e-01 1.039288938045501709e-01 1.038246676325798035e-01 1.037214770913124084e-01 1.036142259836196899e-01 1.034988686442375183e-01 1.033837646245956421e-01 1.032698899507522583e-01 1.031551286578178406e-01 1.030406206846237183e-01 1.029276624321937561e-01 1.028136610984802246e-01 1.027002409100532532e-01 1.025875434279441833e-01 1.024742946028709412e-01 1.001737564802169800e-01 1.006253734230995178e-01 1.010815948247909546e-01 1.015411466360092163e-01 1.019139960408210754e-01 1.018025428056716919e-01 1.016910225152969360e-01 1.015805304050445557e-01 1.014701202511787415e-01 1.001108661293983459e-01 1.006107777357101440e-01 1.011160612106323242e-01 1.010296270251274109e-01 1.009202599525451660e-01 1.000972762703895569e-01 1.003120243549346924e-01 1.005271673202514648e-01 1.004843562841415405e-01 1.003764718770980835e-01 1.002680510282516479e-01 1.001601666212081909e-01 1.000529751181602478e-01 1.003137901425361633e-01 1.002166867256164551e-01 1.001202315092086792e-01 1.000238060951232910e-01 1.002183705568313599e-01 1.004647985100746155e-01 1.002591550350189209e-01 1.002926006913185120e-01 1.002067252993583679e-01 1.001216098666191101e-01 1.000360250473022461e-01 1.006267666816711426e-01 1.005364656448364258e-01 1.004455462098121643e-01 1.003547981381416321e-01 1.002645194530487061e-01 1.001744046807289124e-01 1.000839918851852417e-01 1.029824912548065186e-01 1.029439941048622131e-01 1.029051989316940308e-01 1.028667613863945007e-01 1.027383953332901001e-01 1.011368185281753540e-01 1.019958406686782837e-01 1.000085473060607910e-01 1.004107668995857239e-01 1.006215885281562805e-01 1.001256629824638367e-01 1.003226935863494873e-01 1.005204245448112488e-01 1.007190123200416565e-01 1.009192466735839844e-01 1.011185571551322937e-01 1.013203859329223633e-01 1.015222296118736267e-01 1.017244830727577209e-01
1.012035831809043884e-01 1.010762155055999756e-01 1.009473055601119995e-01 1.008202731609344482e-01 1.006935611367225647e-01 1.005662381649017334e-01 1.004398539662361145e-01 1.003131717443466187e-01 1.001874208450317383e-01 1.000619903206825256e-01 1.005521938204765320e-01 1.004280000925064087e-01 1.003035008907318115e-01 1.001791507005691528e-01 1.000558808445930481e-01 1.015976965427398682e-01 1.009193211793899536e-01 1.002496480941772461e-01 1.018430441617965698e-01 1.017470732331275940e-01 1.016512736678123474e-01 1.015551909804344177e-01 1.014603823423385620e-01 1.013648137450218201e-01 1.012697368860244751e-01 1.011745259165763855e-01 1.010798066854476929e-01 1.009855717420578003e-01 1.008912026882171631e-01 1.007968559861183167e-01 1.007028445601463318e-01 1.006090044975280762e-01 1.005150303244590759e-01 1.004220023751258850e-01 1.003288328647613525e-01 1.002356931567192078e-01 1.001427173614501953e-01 1.000499203801155090e-01 1.006060689687728882e-01 1.004857495427131653e-01 1.003658697009086609e-01 1.002452000975608826e-01 1.001252755522727966e-01 1.000053435564041138e-01 1.000419780611991882e-01 1.000557243824005127e-01 1.001972258090972900e-01 1.001255884766578674e-01 1.000546589493751526e-01 1.039435639977455139e-01 1.038394719362258911e-01 1.037354320287704468e-01 1.036319211125373840e-01 1.035287901759147644e-01 1.034250408411026001e-01 1.033224761486053467e-01 1.032194644212722778e-01 1.004375442862510681e-01 1.008915156126022339e-01 1.013496071100234985e-01 1.018118783831596375e-01 1.022783443331718445e-01 1.026073023676872253e-01 1.025063470005989075e-01 1.024028807878494263e-01 1.022914722561836243e-01 1.003687456250190735e-01 1.008714437484741211e-01 1.013791561126708984e-01 1.018433645367622375e-01 1.000203341245651245e-01 1.002345979213714600e-01 1.004502475261688232e-01 1.006656959652900696e-01 1.001138091087341309e-01 1.007708162069320679e-01 1.010698229074478149e-01 1.009603664278984070e-01 1.008517667651176453e-01 1.007427796721458435e-01 1.006334125995635986e-01 1.005250513553619385e-01 1.004164591431617737e-01 1.003081053495407104e-01 1.002005934715270996e-01 1.000927090644836426e-01 1.002298668026924133e-01 1.001332327723503113e-01 1.000369414687156677e-01 1.006514951586723328e-01 1.005654633045196533e-01 1.004795804619789124e-01 1.003930792212486267e-01 1.003068760037422180e-01 1.002211272716522217e-01 1.001350730657577515e-01 1.000497713685035706e-01 1.008056923747062683e-01 1.007149145007133484e-01 1.006236746907234192e-01 1.005329117178916931e-01 1.004423201084136963e-01 1.003518775105476379e-01 1.002608388662338257e-01 1.001547351479530334e-01 1.000806316733360291e-01 1.000860556960105896e-01 1.002829298377037048e-01 1.004815101623535156e-01 1.006790921092033386e-01 1.008789315819740295e-01 1.010791808366775513e-01 1.012800633907318115e-01 1.014813557267189026e-01 1.016847938299179077e-01 1.018873825669288635e-01 1.020918935537338257e-01 1.022971421480178833e-01 1.024544313549995422e-01
1.016608923673629761e-01 1.015319004654884338e-01 1.014030799269676208e-01 1.012745872139930725e-01 1.011454835534095764e-01 1.010167002677917480e-01 1.008898094296455383e-01 1.007629185914993286e-01 1.006357297301292419e-01 1.005091741681098938e-01 1.003823131322860718e-01 1.002563908696174622e-01 1.001304835081100464e-01 1.000051870942115784e-01 1.004732698202133179e-01 1.003485023975372314e-01 1.002246588468551636e-01 1.001005023717880249e-01 1.017683967947959900e-01 1.010868176817893982e-01 1.004150733351707458e-01 1.022399291396141052e-01 1.021427288651466370e-01 1.020460277795791626e-01 1.019498258829116821e-01 1.018534898757934570e-01 1.017579734325408936e-01 1.016619950532913208e-01 1.015662029385566711e-01 1.014709100127220154e-01 1.013756319880485535e-01 1.012802198529243469e-01 1.011856123805046082e-01 1.010908707976341248e-01 1.009963080286979675e-01 1.009019240736961365e-01 1.008073985576629639e-01 1.007138267159461975e-01 1.006196588277816772e-01 1.005256697535514832e-01 1.004324629902839661e-01 1.003391295671463013e-01 1.002462729811668396e-01 1.001532822847366333e-01 1.000604629516601562e-01 1.002425923943519592e-01 1.001226752996444702e-01 1.000028997659683228e-01 1.000557243824005127e-01 1.002478078007698059e-01 1.001763939857482910e-01 1.001044809818267822e-01 1.000332757830619812e-01 1.002495661377906799e-01 1.007024571299552917e-01 1.011587902903556824e-01 1.016186848282814026e-01 1.020840182900428772e-01 1.025527045130729675e-01 1.030266508460044861e-01 1.031312644481658936e-01 1.030286327004432678e-01 1.001283004879951477e-01 1.006280779838562012e-01 1.011343225836753845e-01 1.016437485814094543e-01 1.021595671772956848e-01 1.001574918627738953e-01 1.003728210926055908e-01 1.005885228514671326e-01 1.008054241538047791e-01 1.004746556282043457e-01 1.011347100138664246e-01 1.014611274003982544e-01 1.016812026500701904e-01 1.016169115900993347e-01 1.015180647373199463e-01 1.014186143875122070e-01 1.013196781277656555e-01 1.006915494799613953e-01 1.011109948158264160e-01 1.010015979409217834e-01 1.004372388124465942e-01 1.007825955748558044e-01 1.006740704178810120e-01 1.005654633045196533e-01 1.004567891359329224e-01 1.003486514091491699e-01 1.002407521009445190e-01 1.001327782869338989e-01 1.000247225165367126e-01 1.000503823161125183e-01 1.007522270083427429e-01 1.006657183170318604e-01 1.005788967013359070e-01 1.004928350448608398e-01 1.004066169261932373e-01 1.003211587667465210e-01 1.002350822091102600e-01 1.001497581601142883e-01 1.000636667013168335e-01 1.005003824830055237e-01 1.000474765896797180e-01 1.002437397837638855e-01 1.004414707422256470e-01 1.006205901503562927e-01 1.005295217037200928e-01 1.004386246204376221e-01 1.003481894731521606e-01 1.002579256892204285e-01 1.001675128936767578e-01 1.000778824090957642e-01 1.020513474941253662e-01 1.022558063268661499e-01 1.024622768163681030e-01 1.026678979396820068e-01 1.026939600706100464e-01 1.026556789875030518e-01 1.026170998811721802e-01
1.021225154399871826e-01 1.019915565848350525e-01 1.018614098429679871e-01 1.017315909266471863e-01 1.016025766730308533e-01 1.014732643961906433e-01 1.013447493314743042e-01 1.012154594063758850e-01 1.010871306061744690e-01 1.009597480297088623e-01 1.008323729038238525e-01 1.007050052285194397e-01 1.005782783031463623e-01 1.004512459039688110e-01 1.003257632255554199e-01 1.001993715763092041e-01 1.000739037990570068e-01 1.005182638764381409e-01 1.003940030932426453e-01 1.002694293856620789e-01 1.001459360122680664e-01 1.000227406620979309e-01 1.012558117508888245e-01 1.005816683173179626e-01 1.023456305265426636e-01 1.022711992263793945e-01 1.021962463855743408e-01 1.021223515272140503e-01 1.020479351282119751e-01 1.019739434123039246e-01 1.018997356295585632e-01 1.018259525299072266e-01 1.017522811889648438e-01 1.016780883073806763e-01 1.016046255826950073e-01 1.015306413173675537e-01 1.014577150344848633e-01 1.013842597603797913e-01 1.012914925813674927e-01 1.011960804462432861e-01 1.011013239622116089e-01 1.010067388415336609e-01 1.009123325347900391e-01 1.008185669779777527e-01 1.007241979241371155e-01 1.006300151348114014e-01 1.005366146564483643e-01 1.004427745938301086e-01 1.003500372171401978e-01 1.000632122159004211e-01 1.001203805208206177e-01 1.000004559755325317e-01 1.000684052705764771e-01 1.002260372042655945e-01 1.001546606421470642e-01 1.000830754637718201e-01 1.000122055411338806e-01 1.037638485431671143e-01 1.036607772111892700e-01 1.003860831260681152e-01 1.008891090750694275e-01 1.013970002532005310e-01 1.019103899598121643e-01 1.000810712575912476e-01 1.002952903509140015e-01 1.005103439092636108e-01 1.007272228598594666e-01 1.001774668693542480e-01 1.008346974849700928e-01 1.013808846473693848e-01 1.016015335917472839e-01 1.018227934837341309e-01 1.020444780588150024e-01 1.021307930350303650e-01 1.020302996039390564e-01 1.019298508763313293e-01 1.018303856253623962e-01 1.017303317785263062e-01 1.016307845711708069e-01 1.005266681313514709e-01 1.013643443584442139e-01 1.013331487774848938e-01 1.012343838810920715e-01 1.011354923248291016e-01 1.010374128818511963e-01 1.009393781423568726e-01 1.008407473564147949e-01 1.007429361343383789e-01 1.006456241011619568e-01 1.005477234721183777e-01 1.004504784941673279e-01 1.003537252545356750e-01 1.002562418580055237e-01 1.001598611474037170e-01 1.000635176897048950e-01 1.007891073822975159e-01 1.007666364312171936e-01 1.002439707517623901e-01 1.000080853700637817e-01 1.000043526291847229e-01 1.004019230604171753e-01 1.003346741199493408e-01 1.002493351697921753e-01 1.001630797982215881e-01 1.000774204730987549e-01 1.011648401618003845e-01 1.010737195611000061e-01 1.009815260767936707e-01 1.008901149034500122e-01 1.007991805672645569e-01 1.007074862718582153e-01 1.006165742874145508e-01 1.005258187651634216e-01 1.004352346062660217e-01 1.003448143601417542e-01 1.002545505762100220e-01 1.001641452312469482e-01 1.000742092728614807e-01 1.027807742357254028e-01
1.025875434279441833e-01 1.024561896920204163e-01 1.023250147700309753e-01 1.021941751241683960e-01 1.020630300045013428e-01 1.019322276115417480e-01 1.018023863434791565e-01 1.016728803515434265e-01 1.015432253479957581e-01 1.014146953821182251e-01 1.012861654162406921e-01 1.011570319533348083e-01 1.010291576385498047e-01 1.009012982249259949e-01 1.007743850350379944e-01 1.006471663713455200e-01 1.005199626088142395e-01 1.003936976194381714e-01 1.002674400806427002e-01 1.001414954662322998e-01 1.000164821743965149e-01 1.004401594400405884e-01 1.003156304359436035e-01 1.001914069056510925e-01 1.000677943229675293e-01 1.014247387647628784e-01 1.007485091686248779e-01 1.000809371471405029e-01 1.023232564330101013e-01 1.022482216358184814e-01 1.021739393472671509e-01 1.020997613668441772e-01 1.020253747701644897e-01 1.019510999321937561e-01 1.018772423267364502e-01 1.018034964799880981e-01 1.017292216420173645e-01 1.016560047864913940e-01 1.015828922390937805e-01 1.015095710754394531e-01 1.014354154467582703e-01 1.013626158237457275e-01 1.012866348028182983e-01 1.011856123805046082e-01 1.010843217372894287e-01 1.009835451841354370e-01 1.003261134028434753e-01 1.007790714502334595e-01 1.006818041205406189e-01 1.005819812417030334e-01 1.004820466041564941e-01 1.003824695944786072e-01 1.002830862998962402e-01 1.001840531826019287e-01 1.000846028327941895e-01 1.001454368233680725e-01 1.000823155045509338e-01 1.001737937331199646e-01 1.000815480947494507e-01 1.000040024518966675e-01 1.002181023359298706e-01 1.004336774349212646e-01 1.006488502025604248e-01 1.008663401007652283e-01 1.005380079150199890e-01 1.011987403035163879e-01 1.015219911932945251e-01 1.017430424690246582e-01 1.019641831517219543e-01 1.021874397993087769e-01 1.024110019207000732e-01 1.026353016495704651e-01 1.011664047837257385e-01 1.024472191929817200e-01 1.023457869887351990e-01 1.022451967000961304e-01 1.006164178252220154e-01 1.014558300375938416e-01 1.019442752003669739e-01 1.018443107604980469e-01 1.017442271113395691e-01 1.016448140144348145e-01 1.015452742576599121e-01 1.014459356665611267e-01 1.013466268777847290e-01 1.012483015656471252e-01 1.011493802070617676e-01 1.010509729385375977e-01 1.009527444839477539e-01 1.008544042706489563e-01 1.007564142346382141e-01 1.006590723991394043e-01 1.001542732119560242e-01 1.004641801118850708e-01 1.003670990467071533e-01 1.001662164926528931e-01 1.001731827855110168e-01 1.000772714614868164e-01 1.001050919294357300e-01 1.008682250976562500e-01 1.007813587784767151e-01 1.006946414709091187e-01 1.006077677011489868e-01 1.005211994051933289e-01 1.004353910684585571e-01 1.003492698073387146e-01 1.002632975578308105e-01 1.001776233315467834e-01 1.000914871692657471e-01 1.000062599778175354e-01 1.012539342045783997e-01 1.011614054441452026e-01 1.010695174336433411e-01 1.009782552719116211e-01 1.008867025375366211e-01 1.007951498031616211e-01 1.007043868303298950e-01 1.006131693720817566e-01 1.005224287509918213e-01
1.000039651989936829e-01 1.029244288802146912e-01 1.027915701270103455e-01 1.026600152254104614e-01 1.025276780128479004e-01 1.023966372013092041e-01 1.022656187415122986e-01 1.021342948079109192e-01 1.020036190748214722e-01 1.018734425306320190e-01 1.017435938119888306e-01 1.016137599945068359e-01 1.014850512146949768e-01 1.013560295104980469e-01 1.012271866202354431e-01 1.010986715555191040e-01 1.009712591767311096e-01 1.008438542485237122e-01 1.007164642214775085e-01 1.005900055170059204e-01 1.004626378417015076e-01 1.003362089395523071e-01 1.002107113599777222e-01 1.000852137804031372e-01 1.004851311445236206e-01 1.003611013293266296e-01 1.002366095781326294e-01 1.001127362251281738e-01 1.015948578715324402e-01 1.009159088134765625e-01 1.002459675073623657e-01 1.023756861686706543e-01 1.023008972406387329e-01 1.022262126207351685e-01 1.021516472101211548e-01 1.020774990320205688e-01 1.020031422376632690e-01 1.019295305013656616e-01 1.018550768494606018e-01 1.017819941043853760e-01 1.017077490687370300e-01 1.016339361667633057e-01 1.001391261816024780e-01 1.005900874733924866e-01 1.010454371571540833e-01 1.012964993715286255e-01 1.011949926614761353e-01 1.010939925909042358e-01 1.009935066103935242e-01 1.008929088711738586e-01 1.007923632860183716e-01 1.006918549537658691e-01 1.004042327404022217e-01 1.004917547106742859e-01 1.003923118114471436e-01 1.002929061651229858e-01 1.001415699720382690e-01 1.000937744975090027e-01 1.001145690679550171e-01 1.002156138420104980e-01 1.000953018665313721e-01 1.001831367611885071e-01 1.001118198037147522e-01 1.000403016805648804e-01 1.001846641302108765e-01 1.000914871692657471e-01 1.023305654525756836e-01 1.025544703006744385e-01 1.024686843156814575e-01 1.003723219037055969e-01 1.030712500214576721e-01 1.029689013957977295e-01 1.028672456741333008e-01 1.007055491209030151e-01 1.015466153621673584e-01 1.024015173316001892e-01 1.024609953165054321e-01 1.023600175976753235e-01 1.022587567567825317e-01 1.021584942936897278e-01 1.020577847957611084e-01 1.019579172134399414e-01 1.018579229712486267e-01 1.017578095197677612e-01 1.016582101583480835e-01 1.015588045120239258e-01 1.014597564935684204e-01 1.013607382774353027e-01 1.010805070400238037e-01 1.011629700660705566e-01 1.003331393003463745e-01 1.001264229416847229e-01 1.003235355019569397e-01 1.005221977829933167e-01 1.006723642349243164e-01 1.005745679140090942e-01 1.004772707819938660e-01 1.003803163766860962e-01 1.002833917737007141e-01 1.001866608858108521e-01 1.000901088118553162e-01 1.002530157566070557e-01 1.001448631286621094e-01 1.000373959541320801e-01 1.007951498031616211e-01 1.007082611322402954e-01 1.006221324205398560e-01 1.005356907844543457e-01 1.004492416977882385e-01 1.003632545471191406e-01 1.002774089574813843e-01 1.001918688416481018e-01 1.001057028770446777e-01 1.000199913978576660e-01 1.014350950717926025e-01 1.013423949480056763e-01 1.012500226497650146e-01 1.011582836508750916e-01 1.010665521025657654e-01
1.005353853106498718e-01 1.004009246826171875e-01 1.002663597464561462e-01 1.001332327723503113e-01 1.002398282289505005e-01 1.001249700784683228e-01 1.000112891197204590e-01 1.025999113917350769e-01 1.024677231907844543e-01 1.023366823792457581e-01 1.022061258554458618e-01 1.020752713084220886e-01 1.019453853368759155e-01 1.018145680427551270e-01 1.016850247979164124e-01 1.015555039048194885e-01 1.014267802238464355e-01 1.012979075312614441e-01 1.011696830391883850e-01 1.010416224598884583e-01 1.009134203195571899e-01 1.007858514785766602e-01 1.006589159369468689e-01 1.005326062440872192e-01 1.004063040018081665e-01 1.002797111868858337e-01 1.001540422439575195e-01 1.000280827283859253e-01 1.004063040018081665e-01 1.002821624279022217e-01 1.001578718423843384e-01 1.000343412160873413e-01 1.010833904147148132e-01 1.004116907715797424e-01 1.024278476834297180e-01 1.023533046245574951e-01 1.022785454988479614e-01 1.022038981318473816e-01 1.021296754479408264e-01 1.004021167755126953e-01 1.008563861250877380e-01 1.013138443231582642e-01 1.017754748463630676e-01 1.017592325806617737e-01 1.016853451728820801e-01 1.016118749976158142e-01 1.015100404620170593e-01 1.014087274670600891e-01 1.001631543040275574e-01 1.006631255149841309e-01 1.011039763689041138e-01 1.010031551122665405e-01 1.000652536749839783e-01 1.002793833613395691e-01 1.004949137568473816e-01 1.006011292338371277e-01 1.005013138055801392e-01 1.004013866186141968e-01 1.003022715449333191e-01 1.002028957009315491e-01 1.001040190458297729e-01 1.000045761466026306e-01 1.001121252775192261e-01 1.002283319830894470e-01 1.001087576150894165e-01 1.001620069146156311e-01 1.000901088118553162e-01 1.000186204910278320e-01 1.004746556282043457e-01 1.003812402486801147e-01 1.002879962325096130e-01 1.001946255564689636e-01 1.001023352146148682e-01 1.000094637274742126e-01 1.029831394553184509e-01 1.028814539313316345e-01 1.027796417474746704e-01 1.026775538921356201e-01 1.025759801268577576e-01 1.024749353528022766e-01 1.023740842938423157e-01 1.022734344005584717e-01 1.021726652979850769e-01 1.020716130733489990e-01 1.019717156887054443e-01 1.004423946142196655e-01 1.000774949789047241e-01 1.000878140330314636e-01 1.002842411398887634e-01 1.004824340343475342e-01 1.006813347339630127e-01 1.008802577853202820e-01 1.010803505778312683e-01 1.010783985257148743e-01 1.009799689054489136e-01 1.008820384740829468e-01 1.007839888334274292e-01 1.006862893700599670e-01 1.005878448486328125e-01 1.004909873008728027e-01 1.003935411572456360e-01 1.002965942025184631e-01 1.002001389861106873e-01 1.001031026244163513e-01 1.000070199370384216e-01 1.002921387553215027e-01 1.001843586564064026e-01 1.000774204730987549e-01 1.008097231388092041e-01 1.007226556539535522e-01 1.006369665265083313e-01 1.005497276782989502e-01 1.004634127020835876e-01 1.003775522112846375e-01 1.002916842699050903e-01 1.002054959535598755e-01 1.001200750470161438e-01 1.000343412160873413e-01 1.016165986657142639e-01
1.003983095288276672e-01 1.002626791596412659e-01 1.001281887292861938e-01 1.005833670496940613e-01 1.004493981599807739e-01 1.003148630261421204e-01 1.001816019415855408e-01 1.000479385256767273e-01 1.004771217703819275e-01 1.003623306751251221e-01 1.002471894025802612e-01 1.001329272985458374e-01 1.000189259648323059e-01 1.022769510746002197e-01 1.021462306380271912e-01 1.020161658525466919e-01 1.018857955932617188e-01 1.017552837729454041e-01 1.016255840659141541e-01 1.014965251088142395e-01 1.013677939772605896e-01 1.012393832206726074e-01 1.011111512780189514e-01 1.009830832481384277e-01 1.008547171950340271e-01 1.007279157638549805e-01 1.006011292338371277e-01 1.004749611020088196e-01 1.003485023975372314e-01 1.002220511436462402e-01 1.000968366861343384e-01 1.004518643021583557e-01 1.003277599811553955e-01 1.002033576369285583e-01 1.000800207257270813e-01 1.002151891589164734e-01 1.005779653787612915e-01 1.011228486895561218e-01 1.015830487012863159e-01 1.020480915904045105e-01 1.022558808326721191e-01 1.021815836429595947e-01 1.021070778369903564e-01 1.020329967141151428e-01 1.019587069749832153e-01 1.004207730293273926e-01 1.009244546294212341e-01 1.014328971505165100e-01 1.016216427087783813e-01 1.002016663551330566e-01 1.004169061779975891e-01 1.006324812769889832e-01 1.008495762944221497e-01 1.003048792481422424e-01 1.009633243083953857e-01 1.009121760725975037e-01 1.008114293217658997e-01 1.007108911871910095e-01 1.006110087037086487e-01 1.005107089877128601e-01 1.004112288355827332e-01 1.003114804625511169e-01 1.002122387290000916e-01 1.001133471727371216e-01 1.000141948461532593e-01 1.002294048666954041e-01 1.000548824667930603e-01 1.002419814467430115e-01 1.001219153404235840e-01 1.000025942921638489e-01 1.000687107443809509e-01 1.008609235286712646e-01 1.007663235068321228e-01 1.006728336215019226e-01 1.005785837769508362e-01 1.004851311445236206e-01 1.003915444016456604e-01 1.002984344959259033e-01 1.002051904797554016e-01 1.001122817397117615e-01 1.000196859240531921e-01 1.013702973723411560e-01 1.024885550141334534e-01 1.000483930110931396e-01 1.002455055713653564e-01 1.004427745938301086e-01 1.006411388516426086e-01 1.008407473564147949e-01 1.010398268699645996e-01 1.012414991855621338e-01 1.014433428645133972e-01 1.015862002968788147e-01 1.014867797493934631e-01 1.013878658413887024e-01 1.012889891862869263e-01 1.011902987957000732e-01 1.010918095707893372e-01 1.009931936860084534e-01 1.008949279785156250e-01 1.007973253726959229e-01 1.006995961070060730e-01 1.006017401814460754e-01 1.005043908953666687e-01 1.004070788621902466e-01 1.003101021051406860e-01 1.002130061388015747e-01 1.001167148351669312e-01 1.000201478600502014e-01 1.004406213760375977e-01 1.003325209021568298e-01 1.002241969108581543e-01 1.001167148351669312e-01 1.000090017914772034e-01 1.007370501756668091e-01 1.006499454379081726e-01 1.002902984619140625e-01 1.004777327179908752e-01 1.003910824656486511e-01 1.003056466579437256e-01
1.010212153196334839e-01 1.008835956454277039e-01 1.007471159100532532e-01 1.006111651659011841e-01 1.004752740263938904e-01 1.003394350409507751e-01 1.002042740583419800e-01 1.000697836279869080e-01 1.003635600209236145e-01 1.002292558550834656e-01 1.000956147909164429e-01 1.008311286568641663e-01 1.007152199745178223e-01 1.005995795130729675e-01 1.004851311445236206e-01 1.003700196743011475e-01 1.002554744482040405e-01 1.001405790448188782e-01 1.000265553593635559e-01 1.019572839140892029e-01 1.018261164426803589e-01 1.016965433955192566e-01 1.015669927000999451e-01 1.014383956789970398e-01 1.013093441724777222e-01 1.011813953518867493e-01 1.010528430342674255e-01 1.009246110916137695e-01 1.007973253726959229e-01 1.006709784269332886e-01 1.005440205335617065e-01 1.000289246439933777e-01 1.002904549241065979e-01 1.001650691032409668e-01 1.000390797853469849e-01 1.003727838397026062e-01 1.002491861581802368e-01 1.001248210668563843e-01 1.000015288591384888e-01 1.007447913289070129e-01 1.000771149992942810e-01 1.001805663108825684e-01 1.006813347339630127e-01 1.011871397495269775e-01 1.016982421278953552e-01 1.001254543662071228e-01 1.003398001194000244e-01 1.005559191107749939e-01 1.007713004946708679e-01 1.000112891197204590e-01 1.006666496396064758e-01 1.013290807604789734e-01 1.015290692448616028e-01 1.014277189970016479e-01 1.013261005282402039e-01 1.012251526117324829e-01 1.011237874627113342e-01 1.010218411684036255e-01 1.009218096733093262e-01 1.000511422753334045e-01 1.007209494709968567e-01 1.006208956241607666e-01 1.005205810070037842e-01 1.001440212130546570e-01 1.003213077783584595e-01 1.002217456698417664e-01 1.001226752996444702e-01 1.000238060951232910e-01 1.003469601273536682e-01 1.002264916896820068e-01 1.001066192984580994e-01 1.002554744482040405e-01 1.001355275511741638e-01 1.000160276889801025e-01 1.000476330518722534e-01 1.011542230844497681e-01 1.010600104928016663e-01 1.009659692645072937e-01 1.007303148508071899e-01 1.000092327594757080e-01 1.002063453197479248e-01 1.004040762782096863e-01 1.004956066608428955e-01 1.004023104906082153e-01 1.003088727593421936e-01 1.002156138420104980e-01 1.001228317618370056e-01 1.000296100974082947e-01 1.018081605434417725e-01 1.020122766494750977e-01 1.019994914531707764e-01 1.018987819552421570e-01 1.017992272973060608e-01 1.016993895173072815e-01 1.015997454524040222e-01 1.015007644891738892e-01 1.014016717672348022e-01 1.013024523854255676e-01 1.012037396430969238e-01 1.011052206158638000e-01 1.010067388415336609e-01 1.009089127182960510e-01 1.008109673857688904e-01 1.007130593061447144e-01 1.006151810288429260e-01 1.005178019404411316e-01 1.004203110933303833e-01 1.003229990601539612e-01 1.002266481518745422e-01 1.001297160983085632e-01 1.000332757830619812e-01 1.005890816450119019e-01 1.004806607961654663e-01 1.003724783658981323e-01 1.002648323774337769e-01 1.001566499471664429e-01 1.000485494732856750e-01 1.007511466741561890e-01 1.006644815206527710e-01
1.016517505049705505e-01 1.015124022960662842e-01 1.013748496770858765e-01 1.012365669012069702e-01 1.010988280177116394e-01 1.009619235992431641e-01 1.008244603872299194e-01 1.006884500384330750e-01 1.005521938204765320e-01 1.004166156053543091e-01 1.002810895442962646e-01 1.001460850238800049e-01 1.000115945935249329e-01 1.001437902450561523e-01 1.000106856226921082e-01 1.010718494653701782e-01 1.009550839662551880e-01 1.008388847112655640e-01 1.007235795259475708e-01 1.006073057651519775e-01 1.004925295710563660e-01 1.003773957490921021e-01 1.002634465694427490e-01 1.001491472125053406e-01 1.000341922044754028e-01 1.016377136111259460e-01 1.015086248517036438e-01 1.013795509934425354e-01 1.002907231450080872e-01 1.007433980703353882e-01 1.009941324591636658e-01 1.008669808506965637e-01 1.007398366928100586e-01 1.006131693720817566e-01 1.004860550165176392e-01 1.003595665097236633e-01 1.002336964011192322e-01 1.001078411936759949e-01 1.004183068871498108e-01 1.002936735749244690e-01 1.001701205968856812e-01 1.000465601682662964e-01 1.002632007002830505e-01 1.002425923943519592e-01 1.006948575377464294e-01 1.009116321802139282e-01 1.003710925579071045e-01 1.010297834873199463e-01 1.015685871243476868e-01 1.017888709902763367e-01 1.020107641816139221e-01 1.019487157464027405e-01 1.018458977341651917e-01 1.017440706491470337e-01 1.016413420438766479e-01 1.013235971331596375e-01 1.014369800686836243e-01 1.013356596231460571e-01 1.012346968054771423e-01 1.011336147785186768e-01 1.002324745059013367e-01 1.009317561984062195e-01 1.008306667208671570e-01 1.007300838828086853e-01 1.006304770708084106e-01 1.005302965641021729e-01 1.004303097724914551e-01 1.003308296203613281e-01 1.002309396862983704e-01 1.001321598887443542e-01 1.000334247946739197e-01 1.004647985100746155e-01 1.003438904881477356e-01 1.002240404486656189e-01 1.001038700342178345e-01 1.000982895493507385e-01 1.001488417387008667e-01 1.000289991497993469e-01 1.000259444117546082e-01 1.007612943649291992e-01 1.009613797068595886e-01 1.011617928743362427e-01 1.011648401618003845e-01 1.010709181427955627e-01 1.009759232401847839e-01 1.008817330002784729e-01 1.007877141237258911e-01 1.006938666105270386e-01 1.005995795130729675e-01 1.005060896277427673e-01 1.004127711057662964e-01 1.003193110227584839e-01 1.002263426780700684e-01 1.001332327723503113e-01 1.000409126281738281e-01 1.018131449818611145e-01 1.017134338617324829e-01 1.016137599945068359e-01 1.015141308307647705e-01 1.014154776930809021e-01 1.013159230351448059e-01 1.012171804904937744e-01 1.011189520359039307e-01 1.010204404592514038e-01 1.009222790598869324e-01 1.008243039250373840e-01 1.007262170314788818e-01 1.006283164024353027e-01 1.002638339996337891e-01 1.004338487982749939e-01 1.003368273377418518e-01 1.002402901649475098e-01 1.001431792974472046e-01 1.000464111566543579e-01 1.007384434342384338e-01 1.006295457482337952e-01 1.005204245448112488e-01 1.004126146435737610e-01 1.003047302365303040e-01
1.022901982069015503e-01 1.021502092480659485e-01 1.020098105072975159e-01 1.018701195716857910e-01 1.017306447029113770e-01 1.015917137265205383e-01 1.014536246657371521e-01 1.013151332736015320e-01 1.011776477098464966e-01 1.010399088263511658e-01 1.009028553962707520e-01 1.007664799690246582e-01 1.006301641464233398e-01 1.004939153790473938e-01 1.003580242395401001e-01 1.002231240272521973e-01 1.000879704952239990e-01 1.000583246350288391e-01 1.014294475317001343e-01 1.013124734163284302e-01 1.011954545974731445e-01 1.010793372988700867e-01 1.009628549218177795e-01 1.008466482162475586e-01 1.001045554876327515e-01 1.005548164248466492e-01 1.005002334713935852e-01 1.003847792744636536e-01 1.002708151936531067e-01 1.001564934849739075e-01 1.000424399971961975e-01 1.013213992118835449e-01 1.011926457285881042e-01 1.010639071464538574e-01 1.001976877450942993e-01 1.006989777088165283e-01 1.006822660565376282e-01 1.005554348230361938e-01 1.001860052347183228e-01 1.003024280071258545e-01 1.001763939857482910e-01 1.000506877899169922e-01 1.000743657350540161e-01 1.002154573798179626e-01 1.000914871692657471e-01 1.010802686214447021e-01 1.004084572196006775e-01 1.021538749337196350e-01 1.023765653371810913e-01 1.024128049612045288e-01 1.023379564285278320e-01 1.022632196545600891e-01 1.005228906869888306e-01 1.020615994930267334e-01 1.019583940505981445e-01 1.018558666110038757e-01 1.017532274127006531e-01 1.003215387463569641e-01 1.011561751365661621e-01 1.014468744397163391e-01 1.013456881046295166e-01 1.012443900108337402e-01 1.011432930827140808e-01 1.010419353842735291e-01 1.009413972496986389e-01 1.008405983448028564e-01 1.007399931550025940e-01 1.006399020552635193e-01 1.005395501852035522e-01 1.004396975040435791e-01 1.003400534391403198e-01 1.002407521009445190e-01 1.001281887292861938e-01 1.000427454710006714e-01 1.005231216549873352e-01 1.001982241868972778e-01 1.003417372703552246e-01 1.002214401960372925e-01 1.001017242670059204e-01 1.002186760306358337e-01 1.001473143696784973e-01 1.000427454710006714e-01 1.000045761466026306e-01 1.017478629946708679e-01 1.016522198915481567e-01 1.015564501285552979e-01 1.014611646533012390e-01 1.013660654425621033e-01 1.012705191969871521e-01 1.011757701635360718e-01 1.010808944702148438e-01 1.009865030646324158e-01 1.008922904729843140e-01 1.007982492446899414e-01 1.007040813565254211e-01 1.006103903055191040e-01 1.005162596702575684e-01 1.004235371947288513e-01 1.003300622105598450e-01 1.002364605665206909e-01 1.001439467072486877e-01 1.000506877899169922e-01 1.014288216829299927e-01 1.013298630714416504e-01 1.012310981750488281e-01 1.006927043199539185e-01 1.010339856147766113e-01 1.009354889392852783e-01 1.008376479148864746e-01 1.007395312190055847e-01 1.006420627236366272e-01 1.005447879433631897e-01 1.004469320178031921e-01 1.003498807549476624e-01 1.002530157566070557e-01 1.001561880111694336e-01 1.000600010156631470e-01 1.008880957961082458e-01 1.007787212729454041e-01
1.002335473895072937e-01 1.001418009400367737e-01 1.000502258539199829e-01 1.024273708462715149e-01 1.022886037826538086e-01 1.021489351987838745e-01 1.020101308822631836e-01 1.018718555569648743e-01 1.017339602112770081e-01 1.015962809324264526e-01 1.014591231942176819e-01 1.013220250606536865e-01 1.011854559183120728e-01 1.010489463806152344e-01 1.009137332439422607e-01 1.007784157991409302e-01 1.006431505084037781e-01 1.005083993077278137e-01 1.003738567233085632e-01 1.002396792173385620e-01 1.001063138246536255e-01 1.000299155712127686e-01 1.008203476667404175e-01 1.012781038880348206e-01 1.014372929930686951e-01 1.013203039765357971e-01 1.012035831809043884e-01 1.010871306061744690e-01 1.009706333279609680e-01 1.008553355932235718e-01 1.007390618324279785e-01 1.004564836621284485e-01 1.005079373717308044e-01 1.003930792212486267e-01 1.001087799668312073e-01 1.001638397574424744e-01 1.000503823161125183e-01 1.007561013102531433e-01 1.008792445063591003e-01 1.004341617226600647e-01 1.006242930889129639e-01 1.004980728030204773e-01 1.003715544939041138e-01 1.002456545829772949e-01 1.001197695732116699e-01 1.003847792744636536e-01 1.002605333924293518e-01 1.001370623707771301e-01 1.000129729509353638e-01 1.005742624402046204e-01 1.026151701807975769e-01 1.025397107005119324e-01 1.024650037288665771e-01 1.023816019296646118e-01 1.004103049635887146e-01 1.012465804815292358e-01 1.020711362361907959e-01 1.019680723547935486e-01 1.018656790256500244e-01 1.017636582255363464e-01 1.016612052917480469e-01 1.015589684247970581e-01 1.014569252729415894e-01 1.013550907373428345e-01 1.012540906667709351e-01 1.011528149247169495e-01 1.010515913367271423e-01 1.009511947631835938e-01 1.000887304544448853e-01 1.002859994769096375e-01 1.004834324121475220e-01 1.005497276782989502e-01 1.004500165581703186e-01 1.003495752811431885e-01 1.002502590417861938e-01 1.001514419913291931e-01 1.000525206327438354e-01 1.006289273500442505e-01 1.005566716194152832e-01 1.004597172141075134e-01 1.003391295671463013e-01 1.002188324928283691e-01 1.000992804765701294e-01 1.001978367567062378e-01 1.001261994242668152e-01 1.000546589493751526e-01 1.021440029144287109e-01 1.020469814538955688e-01 1.019507795572280884e-01 1.018541231751441956e-01 1.017592325806617737e-01 1.016629412770271301e-01 1.015674620866775513e-01 1.014718487858772278e-01 1.013764142990112305e-01 1.012817844748497009e-01 1.011867076158523560e-01 1.010918095707893372e-01 1.009970903396606445e-01 1.009028553962707520e-01 1.008091047406196594e-01 1.002390682697296143e-01 1.006208956241607666e-01 1.005270555615425110e-01 1.004336997866630554e-01 1.003402024507522583e-01 1.002471894025802612e-01 1.001543551683425903e-01 1.000613793730735779e-01 1.010475382208824158e-01 1.009496375918388367e-01 1.008513048291206360e-01 1.007533147931098938e-01 1.006559804081916809e-01 1.005575954914093018e-01 1.004603281617164612e-01 1.003635600209236145e-01 1.002665162086486816e-01 1.001698151230812073e-01
1.011568754911422729e-01 1.010631248354911804e-01 1.009698584675788879e-01 1.008764505386352539e-01 1.007841452956199646e-01 1.006910800933837891e-01 1.005981937050819397e-01 1.005057767033576965e-01 1.004132330417633057e-01 1.003210023045539856e-01 1.002290993928909302e-01 1.001373678445816040e-01 1.000461056828498840e-01 1.015083119273185730e-01 1.013709232211112976e-01 1.012346968054771423e-01 1.010978892445564270e-01 1.001801863312721252e-01 1.006318703293800354e-01 1.006917059421539307e-01 1.005574390292167664e-01 1.004226133227348328e-01 1.002879962325096130e-01 1.001543551683425903e-01 1.000218242406845093e-01 1.001063138246536255e-01 1.019168496131896973e-01 1.002148836851119995e-01 1.007162705063819885e-01 1.012224555015563965e-01 1.000321507453918457e-01 1.002460792660713196e-01 1.004613339900970459e-01 1.006776615977287292e-01 1.008943691849708557e-01 1.001396626234054565e-01 1.007468104362487793e-01 1.006317138671875000e-01 1.005159541964530945e-01 1.004010736942291260e-01 1.002858504652976990e-01 1.001718044281005859e-01 1.000577136874198914e-01 1.006935611367225647e-01 1.005671620368957520e-01 1.004404723644256592e-01 1.003147065639495850e-01 1.001880392432212830e-01 1.000626012682914734e-01 1.003056466579437256e-01 1.001814529299736023e-01 1.000584736466407776e-01 1.007410809397697449e-01 1.000742092728614807e-01 1.025923639535903931e-01 1.024952903389930725e-01 1.023916825652122498e-01 1.022879630327224731e-01 1.021844521164894104e-01 1.020809933543205261e-01 1.019785404205322266e-01 1.018759757280349731e-01 1.017736122012138367e-01 1.016709879040718079e-01 1.000498458743095398e-01 1.002471148967742920e-01 1.004447042942047119e-01 1.006426811218261719e-01 1.006032079458236694e-01 1.010426357388496399e-01 1.009606793522834778e-01 1.008601486682891846e-01 1.007598191499710083e-01 1.006596907973289490e-01 1.005589812994003296e-01 1.004595607519149780e-01 1.003597155213356018e-01 1.002600714564323425e-01 1.001609340310096741e-01 1.000613793730735779e-01 1.006790176033973694e-01 1.006069928407669067e-01 1.005347669124603271e-01 1.004569455981254578e-01 1.003369763493537903e-01 1.002165302634239197e-01 1.000966802239418030e-01 1.001760885119438171e-01 1.001041755080223083e-01 1.000329703092575073e-01 1.024451404809951782e-01 1.023485064506530762e-01 1.022514179348945618e-01 1.021545082330703735e-01 1.020581051707267761e-01 1.019612476229667664e-01 1.018658429384231567e-01 1.017693504691123962e-01 1.006668806076049805e-01 1.015603020787239075e-01 1.014825329184532166e-01 1.013873964548110962e-01 1.012921184301376343e-01 1.011973321437835693e-01 1.011017933487892151e-01 1.010076701641082764e-01 1.009137332439422607e-01 1.008196547627449036e-01 1.007251292467117310e-01 1.006314009428024292e-01 1.005375385284423828e-01 1.004441604018211365e-01 1.003509610891342163e-01 1.002576202154159546e-01 1.001644581556320190e-01 1.000714600086212158e-01 1.006691232323646545e-01 1.005714833736419678e-01 1.004744991660118103e-01
1.020972207188606262e-01 1.020018756389617920e-01 1.019068658351898193e-01 1.018117219209671021e-01 1.017169058322906494e-01 1.016222685575485229e-01 1.015281304717063904e-01 1.014341562986373901e-01 1.013400480151176453e-01 1.012457981705665588e-01 1.011523455381393433e-01 1.010586023330688477e-01 1.009653434157371521e-01 1.008720993995666504e-01 1.004434302449226379e-01 1.006865948438644409e-01 1.005937159061431885e-01 1.005013138055801392e-01 1.004087701439857483e-01 1.003167033195495605e-01 1.002248078584671021e-01 1.001327782869338989e-01 1.000416725873947144e-01 1.006049886345863342e-01 1.004706472158432007e-01 1.003365144133567810e-01 1.002027392387390137e-01 1.000691726803779602e-01 1.003182381391525269e-01 1.001832857728004456e-01 1.000483930110931396e-01 1.010347455739974976e-01 1.004977673292160034e-01 1.011595278978347778e-01 1.016884967684745789e-01 1.015706136822700500e-01 1.014529988169670105e-01 1.013365983963012695e-01 1.012192144989967346e-01 1.011027246713638306e-01 1.009861901402473450e-01 1.008705496788024902e-01 1.002051904797554016e-01 1.006391271948814392e-01 1.005239710211753845e-01 1.004087701439857483e-01 1.002941355109214783e-01 1.001800745725631714e-01 1.000653505325317383e-01 1.003827750682830811e-01 1.002568528056144714e-01 1.001310944557189941e-01 1.000054925680160522e-01 1.002274155616760254e-01 1.001027971506118774e-01 1.009093821048736572e-01 1.002393737435340881e-01 1.026085838675498962e-01 1.025047451257705688e-01 1.024014428257942200e-01 1.000106856226921082e-01 1.000884994864463806e-01 1.004046946763992310e-01 1.006037518382072449e-01 1.008022055029869080e-01 1.010024547576904297e-01 1.012030392885208130e-01 1.014044135808944702e-01 1.014760956168174744e-01 1.013745367527008057e-01 1.012734919786453247e-01 1.011723354458808899e-01 1.010713875293731689e-01 1.009704768657684326e-01 1.008693054318428040e-01 1.007692664861679077e-01 1.006692722439765930e-01 1.005690172314643860e-01 1.004692614078521729e-01 1.003690958023071289e-01 1.002694293856620789e-01 1.001705750823020935e-01 1.000713109970092773e-01 1.007300838828086853e-01 1.006576791405677795e-01 1.005850657820701599e-01 1.005134880542755127e-01 1.004413962364196777e-01 1.003337502479553223e-01 1.002136170864105225e-01 1.000939309597015381e-01 1.001549661159515381e-01 1.000836864113807678e-01 1.000119000673294067e-01 1.002133116126060486e-01 1.010985150933265686e-01 1.020002067089080811e-01 1.024560332298278809e-01 1.023587360978126526e-01 1.022625863552093506e-01 1.021656543016433716e-01 1.020685955882072449e-01 1.019723564386367798e-01 1.018759757280349731e-01 1.017807275056838989e-01 1.016843989491462708e-01 1.015888750553131104e-01 1.014929041266441345e-01 1.013980582356452942e-01 1.013033911585807800e-01 1.012079566717147827e-01 1.011133342981338501e-01 1.010182574391365051e-01 1.009242981672286987e-01 1.008298918604850769e-01 1.007356569170951843e-01 1.003015041351318359e-01 1.005480289459228516e-01 1.004546359181404114e-01
1.002427414059638977e-01 1.001313999295234680e-01 1.000209078192710876e-01 1.027643308043479919e-01 1.026680618524551392e-01 1.025716438889503479e-01 1.024754121899604797e-01 1.023795232176780701e-01 1.022836491465568542e-01 1.021879613399505615e-01 1.002557054162025452e-01 1.007083356380462646e-01 1.011650711297988892e-01 1.016256585717201233e-01 1.017124876379966736e-01 1.016180142760276794e-01 1.015234068036079407e-01 1.014297604560852051e-01 1.013353466987609863e-01 1.012417301535606384e-01 1.002325862646102905e-01 1.007332950830459595e-01 1.009606793522834778e-01 1.000926122069358826e-01 1.003073602914810181e-01 1.005219891667366028e-01 1.005893945693969727e-01 1.004969924688339233e-01 1.002024337649345398e-01 1.002505645155906677e-01 1.001170203089714050e-01 1.001284942030906677e-01 1.000370904803276062e-01 1.002602279186248779e-01 1.001251265406608582e-01 1.022881194949150085e-01 1.021694764494895935e-01 1.020511090755462646e-01 1.014793887734413147e-01 1.018139347434043884e-01 1.016967073082923889e-01 1.015788018703460693e-01 1.014608517289161682e-01 1.013438105583190918e-01 1.012270301580429077e-01 1.006788611412048340e-01 1.009939759969711304e-01 1.008780002593994141e-01 1.007623001933097839e-01 1.006468608975410461e-01 1.005316823720932007e-01 1.004164591431617737e-01 1.003018096089363098e-01 1.001874208450317383e-01 1.000726819038391113e-01 1.000739037990570068e-01 1.002726554870605469e-01 1.001483798027038574e-01 1.000251844525337219e-01 1.004049256443977356e-01 1.005376949906349182e-01 1.009623110294342041e-01 1.011631190776824951e-01 1.013648137450218201e-01 1.015659719705581665e-01 1.017695814371109009e-01 1.019732281565666199e-01 1.018956154584884644e-01 1.017929017543792725e-01 1.016905531287193298e-01 1.015885621309280396e-01 1.014864668250083923e-01 1.013848856091499329e-01 1.012835055589675903e-01 1.011817082762718201e-01 1.010810509324073792e-01 1.009802818298339844e-01 1.008794009685516357e-01 1.007791906595230103e-01 1.006783992052078247e-01 1.005785837769508362e-01 1.004786565899848938e-01 1.003790870308876038e-01 1.002792492508888245e-01 1.001800745725631714e-01 1.000806316733360291e-01 1.007805839180946350e-01 1.007081046700477600e-01 1.006360426545143127e-01 1.005637720227241516e-01 1.004919111728668213e-01 1.004201546311378479e-01 1.003311425447463989e-01 1.002111658453941345e-01 1.000910252332687378e-01 1.001335382461547852e-01 1.000622957944869995e-01 1.000963747501373291e-01 1.030537486076354980e-01 1.029559597373008728e-01 1.028570681810379028e-01 1.027596592903137207e-01 1.026621088385581970e-01 1.025644242763519287e-01 1.024672463536262512e-01 1.023699268698692322e-01 1.022731140255928040e-01 1.021761670708656311e-01 1.020797267556190491e-01 1.019815579056739807e-01 1.018815189599990845e-01 1.017815172672271729e-01 1.016818732023239136e-01 1.008672863245010376e-01 1.014834791421890259e-01 1.013844162225723267e-01 1.011985838413238525e-01 1.011867076158523560e-01 1.010882258415222168e-01
1.005869209766387939e-01 1.004751175642013550e-01 1.003630980849266052e-01 1.002522557973861694e-01 1.001411899924278259e-01 1.000303775072097778e-01 1.000693216919898987e-01 1.005199626088142395e-01 1.009746789932250977e-01 1.014334484934806824e-01 1.018965244293212891e-01 1.023634895682334900e-01 1.028357297182083130e-01 1.027599796652793884e-01 1.026635542511940002e-01 1.025671511888504028e-01 1.024710908532142639e-01 1.004912555217742920e-01 1.009957641363143921e-01 1.000152006745338440e-01 1.002299413084983826e-01 1.004450097680091858e-01 1.006616428494453430e-01 1.008780226111412048e-01 1.010958850383758545e-01 1.005622223019599915e-01 1.011091172695159912e-01 1.009734347462654114e-01 1.008368730545043945e-01 1.007023751735687256e-01 1.005673184990882874e-01 1.004326194524765015e-01 1.002988964319229126e-01 1.001649126410484314e-01 1.000317484140396118e-01 1.006083860993385315e-01 1.004724949598312378e-01 1.003368273377418518e-01 1.002018228173255920e-01 1.000668779015541077e-01 1.002159193158149719e-01 1.001242101192474365e-01 1.000325083732604980e-01 1.016109287738800049e-01 1.019333377480506897e-01 1.018030196428298950e-01 1.016730368137359619e-01 1.015438586473464966e-01 1.014150083065032959e-01 1.012866348028182983e-01 1.011581271886825562e-01 1.010302528738975525e-01 1.009020805358886719e-01 1.001291796565055847e-01 1.001779288053512573e-01 1.005213484168052673e-01 1.003943085670471191e-01 1.002686619758605957e-01 1.001424118876457214e-01 1.000167876482009888e-01 1.000809371471405029e-01 1.000699326395988464e-01 1.005710214376449585e-01 1.021362021565437317e-01 1.023421138525009155e-01 1.024214476346969604e-01 1.023179888725280762e-01 1.022147387266159058e-01 1.021113768219947815e-01 1.020079106092453003e-01 1.019055992364883423e-01 1.018030196428298950e-01 1.017008051276206970e-01 1.015986427664756775e-01 1.014965251088142395e-01 1.013949215412139893e-01 1.012936830520629883e-01 1.011920198798179626e-01 1.010910272598266602e-01 1.009894609451293945e-01 1.008888706564903259e-01 1.007887944579124451e-01 1.006883010268211365e-01 1.005884632468223572e-01 1.004885211586952209e-01 1.003886163234710693e-01 1.002895310521125793e-01 1.001882627606391907e-01 1.000904142856597900e-01 1.008311286568641663e-01 1.007585823535919189e-01 1.006861329078674316e-01 1.006141006946563721e-01 1.005421727895736694e-01 1.004700362682342529e-01 1.003983095288276672e-01 1.003263816237449646e-01 1.002081036567687988e-01 1.000884249806404114e-01 1.001121252775192261e-01 1.000406071543693542e-01 1.001096814870834351e-01 1.030077487230300903e-01 1.029058471322059631e-01 1.028036624193191528e-01 1.027020066976547241e-01 1.026007160544395447e-01 1.024999395012855530e-01 1.023979187011718750e-01 1.005458682775497437e-01 1.014402806758880615e-01 1.020956262946128845e-01 1.000920981168746948e-01 1.017311215400695801e-01 1.017954275012016296e-01 1.016959175467491150e-01 1.015965938568115234e-01 1.014969944953918457e-01 1.013980582356452942e-01
1.001842096447944641e-01 1.001421064138412476e-01 1.000997424125671387e-01 1.000574082136154175e-01 1.000148057937622070e-01 1.003730893135070801e-01 1.002614572644233704e-01 1.001508310437202454e-01 1.000398397445678711e-01 1.031134128570556641e-01 1.035919934511184692e-01 1.036717593669891357e-01 1.035294383764266968e-01 1.002500653266906738e-01 1.007518023252487183e-01 1.012577265501022339e-01 1.001531258225440979e-01 1.003684625029563904e-01 1.005835235118865967e-01 1.008002087473869324e-01 1.010174453258514404e-01 1.002639085054397583e-01 1.009244546294212341e-01 1.015906110405921936e-01 1.018444672226905823e-01 1.017060130834579468e-01 1.015687212347984314e-01 1.014316454529762268e-01 1.012944653630256653e-01 1.011584401130676270e-01 1.010218411684036255e-01 1.008863896131515503e-01 1.007508337497711182e-01 1.006162613630294800e-01 1.004814356565475464e-01 1.003469601273536682e-01 1.002134680747985840e-01 1.000794097781181335e-01 1.000282391905784607e-01 1.006856709718704224e-01 1.005498841404914856e-01 1.004138439893722534e-01 1.002786383032798767e-01 1.001436412334442139e-01 1.000088527798652649e-01 1.006731390953063965e-01 1.005805879831314087e-01 1.004880592226982117e-01 1.003958508372306824e-01 1.000901088118553162e-01 1.002116277813911438e-01 1.001197695732116699e-01 1.000282391905784607e-01 1.008832082152366638e-01 1.010829210281372070e-01 1.009721904993057251e-01 1.008447855710983276e-01 1.007177010178565979e-01 1.005903184413909912e-01 1.004635617136955261e-01 1.003371328115463257e-01 1.002113223075866699e-01 1.000859811902046204e-01 1.002386063337326050e-01 1.001147255301475525e-01 1.002027392387390137e-01 1.000703945755958557e-01 1.025353819131851196e-01 1.024310514330863953e-01 1.023274138569831848e-01 1.022241413593292236e-01 1.021213978528976440e-01 1.020185425877571106e-01 1.019158959388732910e-01 1.018126681447029114e-01 1.017102748155593872e-01 1.016080901026725769e-01 1.015062704682350159e-01 1.014044955372810364e-01 1.013022959232330322e-01 1.012010797858238220e-01 1.011003851890563965e-01 1.009995788335800171e-01 1.008991226553916931e-01 1.006151810288429260e-01 1.006975844502449036e-01 1.005978807806968689e-01 1.004977673292160034e-01 1.003984659910202026e-01 1.002988964319229126e-01 1.001990661025047302e-01 1.000997424125671387e-01 1.000009179115295410e-01 1.008094176650047302e-01 1.007368937134742737e-01 1.006644815206527710e-01 1.005924791097640991e-01 1.005202680826187134e-01 1.004481688141822815e-01 1.003764718770980835e-01 1.003048792481422424e-01 1.002061143517494202e-01 1.000858247280120850e-01 1.000904142856597900e-01 1.000192314386367798e-01 1.001226752996444702e-01 1.000036597251892090e-01 1.020194962620735168e-01 1.027161702513694763e-01 1.006124019622802734e-01 1.022692844271659851e-01 1.024121642112731934e-01 1.023115962743759155e-01 1.022105887532234192e-01 1.021097823977470398e-01 1.020094975829124451e-01 1.019093990325927734e-01 1.018093451857566833e-01 1.017096489667892456e-01
1.000662669539451599e-01 1.000352576375007629e-01 1.000044271349906921e-01 1.002459675073623657e-01 1.002035066485404968e-01 1.001607775688171387e-01 1.001183986663818359e-01 1.000763550400733948e-01 1.000338867306709290e-01 1.000094264745712280e-01 1.001601666212081909e-01 1.000488549470901489e-01 1.000768095254898071e-01 1.002906188368797302e-01 1.005065292119979858e-01 1.007225140929222107e-01 1.009401306509971619e-01 1.011576354503631592e-01 1.006278470158576965e-01 1.012899279594421387e-01 1.018183007836341858e-01 1.020394712686538696e-01 1.022626832127571106e-01 1.024501025676727295e-01 1.023104786872863770e-01 1.021707579493522644e-01 1.020322069525718689e-01 1.018938720226287842e-01 1.011531278491020203e-01 1.016180142760276794e-01 1.014806479215621948e-01 1.013439670205116272e-01 1.012067124247550964e-01 1.010707616806030273e-01 1.009351760149002075e-01 1.001170203089714050e-01 1.006643250584602356e-01 1.005293652415275574e-01 1.003955379128456116e-01 1.002608388662338257e-01 1.001277267932891846e-01 1.010372564196586609e-01 1.009003669023513794e-01 1.007635369896888733e-01 1.006270796060562134e-01 1.000504568219184875e-01 1.002480313181877136e-01 1.002202108502388000e-01 1.000855192542076111e-01 1.008431538939476013e-01 1.005099415779113770e-01 1.003929227590560913e-01 1.009476184844970703e-01 1.008545607328414917e-01 1.007615253329277039e-01 1.006686538457870483e-01 1.005762666463851929e-01 1.004835888743400574e-01 1.003916934132575989e-01 1.002993583679199219e-01 1.002071872353553772e-01 1.001153364777565002e-01 1.000238060951232910e-01 1.004059985280036926e-01 1.002801731228828430e-01 1.001548096537590027e-01 1.000285446643829346e-01 1.001598611474037170e-01 1.000366359949111938e-01 1.002353876829147339e-01 1.003248468041419983e-01 1.002104058861732483e-01 1.000959202647209167e-01 1.022338718175888062e-01 1.021307930350303650e-01 1.020279154181480408e-01 1.019258871674537659e-01 1.018227934837341309e-01 1.017206981778144836e-01 1.016180142760276794e-01 1.001626178622245789e-01 1.010474637150764465e-01 1.013130992650985718e-01 1.012115553021430969e-01 1.011100560426712036e-01 1.010089144110679626e-01 1.009085997939109802e-01 1.008084863424301147e-01 1.007081046700477600e-01 1.006079241633415222e-01 1.005073189735412598e-01 1.004076898097991943e-01 1.003085672855377197e-01 1.002090200781822205e-01 1.001099869608879089e-01 1.000102236866950989e-01 1.008599922060966492e-01 1.007874011993408203e-01 1.007152199745178223e-01 1.006431505084037781e-01 1.005711778998374939e-01 1.004989966750144958e-01 1.004269272089004517e-01 1.003549546003341675e-01 1.002836972475051880e-01 1.002033576369285583e-01 1.000832319259643555e-01 1.000687107443809509e-01 1.002563908696174622e-01 1.001361384987831116e-01 1.000169366598129272e-01 1.027301847934722900e-01 1.026286706328392029e-01 1.025270372629165649e-01 1.024259254336357117e-01 1.023254916071891785e-01 1.022244617342948914e-01 1.021237894892692566e-01 1.020234674215316772e-01
1.002490296959877014e-01 1.002179086208343506e-01 1.001869663596153259e-01 1.001338437199592590e-01 1.001105979084968567e-01 1.000592410564422607e-01 1.000074744224548340e-01 1.000322028994560242e-01 1.000015288591384888e-01 1.001797690987586975e-01 1.001372113823890686e-01 1.000953018665313721e-01 1.000526696443557739e-01 1.000102236866950989e-01 1.000586301088333130e-01 1.009899303317070007e-01 1.016582101583480835e-01 1.019604355096817017e-01 1.021827384829521179e-01 1.024068370461463928e-01 1.026310771703720093e-01 1.028563827276229858e-01 1.030624955892562866e-01 1.029215231537818909e-01 1.024545878171920776e-01 1.003557220101356506e-01 1.024999395012855530e-01 1.023598536849021912e-01 1.022211164236068726e-01 1.020825877785682678e-01 1.019434854388237000e-01 1.018052324652671814e-01 1.002064198255538940e-01 1.010388210415840149e-01 1.013927236199378967e-01 1.012561246752738953e-01 1.011200398206710815e-01 1.009841710329055786e-01 1.008480414748191833e-01 1.007130593061447144e-01 1.005784273147583008e-01 1.000118255615234375e-01 1.002084091305732727e-01 1.000109910964965820e-01 1.000422835350036621e-01 1.008029803633689880e-01 1.009776368737220764e-01 1.008412167429924011e-01 1.007045432925224304e-01 1.005687043070793152e-01 1.004327759146690369e-01 1.002968996763229370e-01 1.001618504524230957e-01 1.000273227691650391e-01 1.016946509480476379e-01 1.015999019145965576e-01 1.015056371688842773e-01 1.014115512371063232e-01 1.013173311948776245e-01 1.012237519025802612e-01 1.011298745870590210e-01 1.010366380214691162e-01 1.009432598948478699e-01 1.008500605821609497e-01 1.007286906242370605e-01 1.006018966436386108e-01 1.004754230380058289e-01 1.003486514091491699e-01 1.002231240272521973e-01 1.000968366861343384e-01 1.002027392387390137e-01 1.000821590423583984e-01 1.000193804502487183e-01 1.006780937314033508e-01 1.005628407001495361e-01 1.004475504159927368e-01 1.003322154283523560e-01 1.002186760306358337e-01 1.001044809818267822e-01 1.019347608089447021e-01 1.018319651484489441e-01 1.017300114035606384e-01 1.016279458999633789e-01 1.015259250998497009e-01 1.014239564538002014e-01 1.013221889734268188e-01 1.012207791209220886e-01 1.011200398206710815e-01 1.010187268257141113e-01 1.009177714586257935e-01 1.008170172572135925e-01 1.007170826196670532e-01 1.006170362234115601e-01 1.005168780684471130e-01 1.004173830151557922e-01 1.003176271915435791e-01 1.002180650830268860e-01 1.001193150877952576e-01 1.000204533338546753e-01 1.009109318256378174e-01 1.008382663130760193e-01 1.007663235068321228e-01 1.000338867306709290e-01 1.006218269467353821e-01 1.005495712161064148e-01 1.004774272441864014e-01 1.004053875803947449e-01 1.003337502479553223e-01 1.002622246742248535e-01 1.001901775598526001e-01 1.000806316733360291e-01 1.000476330518722534e-01 1.002694293856620789e-01 1.001497581601142883e-01 1.000302210450172424e-01 1.026424914598464966e-01 1.025411561131477356e-01 1.024400144815444946e-01 1.023390740156173706e-01
1.004323139786720276e-01 1.004013866186141968e-01 1.000273972749710083e-01 1.003395915031433105e-01 1.003084108233451843e-01 1.001370027661323547e-01 1.001609340310096741e-01 1.000219807028770447e-01 1.001049354672431946e-01 1.000534370541572571e-01 1.000015288591384888e-01 1.000913307070732117e-01 1.000601574778556824e-01 1.000289991497993469e-01 1.001560389995574951e-01 1.001139581203460693e-01 1.000719219446182251e-01 1.000296100974082947e-01 1.030022427439689636e-01 1.032285690307617188e-01 1.034571602940559387e-01 1.016347259283065796e-01 1.035403981804847717e-01 1.033976227045059204e-01 1.032555699348449707e-01 1.031137406826019287e-01 1.029721423983573914e-01 1.028310880064964294e-01 1.026909053325653076e-01 1.002948284149169922e-01 1.011289358139038086e-01 1.019769534468650818e-01 1.021320596337318420e-01 1.019933000206947327e-01 1.018547564744949341e-01 1.017165929079055786e-01 1.015792712569236755e-01 1.014420092105865479e-01 1.001697331666946411e-01 1.003668680787086487e-01 1.003555655479431152e-01 1.007643863558769226e-01 1.007616817951202393e-01 1.006263047456741333e-01 1.004915982484817505e-01 1.003575697541236877e-01 1.002237349748611450e-01 1.000898033380508423e-01 1.013306453824043274e-01 1.011931151151657104e-01 1.010553315281867981e-01 1.009182333946228027e-01 1.007818207144737244e-01 1.006457731127738953e-01 1.005093231797218323e-01 1.003738567233085632e-01 1.002387553453445435e-01 1.001035645604133606e-01 1.019568070769309998e-01 1.018272191286087036e-01 1.016970202326774597e-01 1.015674620866775513e-01 1.014387086033821106e-01 1.013098135590553284e-01 1.011812388896942139e-01 1.010536178946495056e-01 1.009253859519958496e-01 1.007981002330780029e-01 1.006711274385452271e-01 1.005444824695587158e-01 1.004181504249572754e-01 1.002915278077125549e-01 1.001659855246543884e-01 1.000403016805648804e-01 1.001268103718757629e-01 1.000038161873817444e-01 1.005673184990882874e-01 1.004749611020088196e-01 1.003824695944786072e-01 1.002906039357185364e-01 1.001984551548957825e-01 1.001069247722625732e-01 1.000149548053741455e-01 1.002257317304611206e-01 1.001112088561058044e-01 1.016374006867408752e-01 1.015355214476585388e-01 1.014338433742523193e-01 1.013323664665222168e-01 1.012307852506637573e-01 1.011290922760963440e-01 1.010282263159751892e-01 1.009272485971450806e-01 1.008270978927612305e-01 1.001514419913291931e-01 1.006269231438636780e-01 1.005261316895484924e-01 1.004264652729034424e-01 1.003269925713539124e-01 1.002278774976730347e-01 1.001287996768951416e-01 1.000294610857963562e-01 1.009619235992431641e-01 1.008891835808753967e-01 1.008168607950210571e-01 1.007443293929100037e-01 1.006719022989273071e-01 1.005998924374580383e-01 1.005276739597320557e-01 1.004561707377433777e-01 1.003838554024696350e-01 1.003125607967376709e-01 1.002407521009445190e-01 1.001687422394752502e-01 1.000783368945121765e-01 1.000262498855590820e-01 1.001023352146148682e-01 1.001635342836380005e-01 1.000430509448051453e-01
1.006164178252220154e-01 1.000606343150138855e-01 1.002752780914306641e-01 1.004897356033325195e-01 1.004919111728668213e-01 1.004607900977134705e-01 1.004098430275917053e-01 1.003583371639251709e-01 1.003062650561332703e-01 1.001875773072242737e-01 1.000485494732856750e-01 1.001509875059127808e-01 1.000994369387626648e-01 1.000480875372886658e-01 1.001812964677810669e-01 1.001506820321083069e-01 1.001193150877952576e-01 1.000884249806404114e-01 1.000575572252273560e-01 1.000264063477516174e-01 1.000777259469032288e-01 1.000477820634841919e-01 1.000057980418205261e-01 1.038779914379119873e-01 1.037351042032241821e-01 1.035913005471229553e-01 1.003841608762741089e-01 1.012199968099594116e-01 1.020692288875579834e-01 1.029333248734474182e-01 1.028814539313316345e-01 1.027412936091423035e-01 1.026003882288932800e-01 1.024609953165054321e-01 1.001298651099205017e-01 1.003280654549598694e-01 1.000998914241790771e-01 1.007032319903373718e-01 1.009242162108421326e-01 1.011241003870964050e-01 1.004826650023460388e-01 1.013546213507652283e-01 1.012173369526863098e-01 1.010815203189849854e-01 1.009455919265747070e-01 1.008095741271972656e-01 1.006748452782630920e-01 1.005404740571975708e-01 1.004064604640007019e-01 1.002711206674575806e-01 1.001381278038024902e-01 1.000042706727981567e-01 1.014098301529884338e-01 1.012711450457572937e-01 1.011337712407112122e-01 1.009963080286979675e-01 1.008592173457145691e-01 1.007226556539535522e-01 1.005866155028343201e-01 1.004514023661613464e-01 1.003156304359436035e-01 1.001806855201721191e-01 1.000459492206573486e-01 1.017680838704109192e-01 1.016381904482841492e-01 1.015092581510543823e-01 1.013798639178276062e-01 1.012512743473052979e-01 1.011234745383262634e-01 1.009953767061233521e-01 1.005645394325256348e-01 1.007403060793876648e-01 1.006128638982772827e-01 1.004866734147071838e-01 1.003611013293266296e-01 1.002340093255043030e-01 1.001087576150894165e-01 1.001727208495140076e-01 1.000486984848976135e-01 1.000673398375511169e-01 1.011209785938262939e-01 1.010272949934005737e-01 1.009344011545181274e-01 1.008409038186073303e-01 1.007482036948204041e-01 1.006553620100021362e-01 1.005629971623420715e-01 1.004629507660865784e-01 1.003485023975372314e-01 1.002340093255043030e-01 1.001191586256027222e-01 1.000054925680160522e-01 1.000103801488876343e-01 1.011392325162887573e-01 1.010383516550064087e-01 1.009368896484375000e-01 1.008367165923118591e-01 1.007364317774772644e-01 1.006366536021232605e-01 1.005364656448364258e-01 1.004366204142570496e-01 1.003363654017448425e-01 1.002370715141296387e-01 1.001382842659950256e-01 1.000392287969589233e-01 1.010126546025276184e-01 1.009398400783538818e-01 1.008674427866935730e-01 1.007948443293571472e-01 1.007229611277580261e-01 1.006505638360977173e-01 1.005779653787612915e-01 1.000276282429695129e-01 1.002695858478546143e-01 1.003623306751251221e-01 1.002907603979110718e-01 1.002189815044403076e-01 1.001479253172874451e-01 1.000754386186599731e-01
1.006277650594711304e-01 1.007703542709350586e-01 1.007389128208160400e-01 1.000994369387626648e-01 1.006762310862541199e-01 1.006451547145843506e-01 1.006128638982772827e-01 1.005609929561614990e-01 1.005083993077278137e-01 1.004560217261314392e-01 1.004041507840156555e-01 1.003526523709297180e-01 1.002150028944015503e-01 1.000754386186599731e-01 1.001970767974853516e-01 1.000369414687156677e-01 1.000936254858970642e-01 1.000421345233917236e-01 1.002402901649475098e-01 1.002091765403747559e-01 1.001785397529602051e-01 1.001477688550949097e-01 1.001164093613624573e-01 1.000855192542076111e-01 1.000548079609870911e-01 1.000239625573158264e-01 1.000253334641456604e-01 1.037863567471504211e-01 1.036427393555641174e-01 1.035005003213882446e-01 1.000907942652702332e-01 1.002886146306991577e-01 1.004862114787101746e-01 1.004458591341972351e-01 1.002705022692680359e-01 1.010850295424461365e-01 1.012850701808929443e-01 1.012117117643356323e-01 1.016898378729820251e-01 1.018929257988929749e-01 1.019547432661056519e-01 1.018163040280342102e-01 1.016780883073806763e-01 1.015410274267196655e-01 1.014035493135452271e-01 1.012669205665588379e-01 1.011312752962112427e-01 1.009942889213562012e-01 1.008589044213294983e-01 1.007235795259475708e-01 1.005886197090148926e-01 1.004540175199508667e-01 1.003197729587554932e-01 1.001861989498138428e-01 1.000523641705513000e-01 1.016268432140350342e-01 1.014883518218994141e-01 1.013500764966011047e-01 1.012117117643356323e-01 1.010746583342552185e-01 1.009373515844345093e-01 1.008004248142242432e-01 1.006640195846557617e-01 1.005278229713439941e-01 1.003930792212486267e-01 1.002574637532234192e-01 1.001115143299102783e-01 1.009952202439308167e-01 1.015800610184669495e-01 1.014511138200759888e-01 1.013217121362686157e-01 1.011934280395507812e-01 1.010651513934135437e-01 1.009370461106300354e-01 1.008103489875793457e-01 1.006830409169197083e-01 1.005563586950302124e-01 1.004300042986869812e-01 1.003031954169273376e-01 1.001777723431587219e-01 1.000523641705513000e-01 1.000942364335060120e-01 1.002326235175132751e-01 1.016339361667633057e-01 1.015164926648139954e-01 1.013993173837661743e-01 1.012827232480049133e-01 1.003949269652366638e-01 1.010494083166122437e-01 1.009330004453659058e-01 1.008168607950210571e-01 1.007012948393821716e-01 1.005856841802597046e-01 1.004706472158432007e-01 1.003558784723281860e-01 1.002413630485534668e-01 1.001274213194847107e-01 1.000131219625473022e-01 1.003735512495040894e-01 1.002815514802932739e-01 1.001897230744361877e-01 1.000979021191596985e-01 1.000064089894294739e-01 1.004458591341972351e-01 1.003466546535491943e-01 1.002471894025802612e-01 1.001480743288993835e-01 1.000485494732856750e-01 1.010634377598762512e-01 1.001952365040779114e-01 1.004378497600555420e-01 1.006813347339630127e-01 1.007728353142738342e-01 1.007009819149971008e-01 1.006286218762397766e-01 1.005566716194152832e-01 1.004851311445236206e-01 1.004130765795707703e-01 1.003411263227462769e-01
1.004567891359329224e-01 1.009557023644447327e-01 1.009244546294212341e-01 1.008929088711738586e-01 1.008613929152488708e-01 1.008297353982925415e-01 1.007985621690750122e-01 1.007639989256858826e-01 1.007115095853805542e-01 1.006593778729438782e-01 1.006068438291549683e-01 1.005552783608436584e-01 1.005030050873756409e-01 1.004510894417762756e-01 1.003815457224845886e-01 1.002419814467430115e-01 1.001026406884193420e-01 1.002428978681564331e-01 1.001915559172630310e-01 1.001399680972099304e-01 1.000882759690284729e-01 1.000363305211067200e-01 1.002995073795318604e-01 1.002686619758605957e-01 1.002378389239311218e-01 1.002068817615509033e-01 1.000522896647453308e-01 1.001448631286621094e-01 1.001136526465415955e-01 1.000824645161628723e-01 1.000442728400230408e-01 1.000015288591384888e-01 1.012450158596038818e-01 1.011259704828262329e-01 1.001803055405616760e-01 1.018527820706367493e-01 1.020563542842864990e-01 1.022615507245063782e-01 1.024671643972396851e-01 1.025613769888877869e-01 1.024216040968894958e-01 1.022822186350822449e-01 1.021430492401123047e-01 1.020044162869453430e-01 1.018659994006156921e-01 1.017282754182815552e-01 1.015906110405921936e-01 1.014523729681968689e-01 1.013162359595298767e-01 1.011796817183494568e-01 1.010434925556182861e-01 1.009081378579139709e-01 1.007725223898887634e-01 1.006374284625053406e-01 1.005023866891860962e-01 1.003686338663101196e-01 1.002340093255043030e-01 1.001003533601760864e-01 1.018452644348144531e-01 1.017061695456504822e-01 1.015668362379074097e-01 1.014285087585449219e-01 1.012903973460197449e-01 1.005393937230110168e-01 1.010156124830245972e-01 1.008786261081695557e-01 1.007415428757667542e-01 1.006048321723937988e-01 1.004691123962402344e-01 1.003336012363433838e-01 1.001993715763092041e-01 1.000642776489257812e-01 1.015212088823318481e-01 1.013919413089752197e-01 1.012637913227081299e-01 1.011350229382514954e-01 1.010068953037261963e-01 1.008797138929367065e-01 1.007525399327278137e-01 1.006250679492950439e-01 1.004985347390174866e-01 1.003723219037055969e-01 1.002461165189743042e-01 1.000763550400733948e-01 1.001396626234054565e-01 1.000155657529830933e-01 1.019964739680290222e-01 1.018781960010528564e-01 1.017601862549781799e-01 1.004946827888488770e-01 1.015240401029586792e-01 1.014071628451347351e-01 1.012905538082122803e-01 1.011735871434211731e-01 1.010568886995315552e-01 1.009404659271240234e-01 1.008249223232269287e-01 1.007090359926223755e-01 1.005937159061431885e-01 1.004789695143699646e-01 1.003638654947280884e-01 1.002490296959877014e-01 1.001347675919532776e-01 1.000210642814636230e-01 1.006558239459991455e-01 1.001203805208206177e-01 1.003624871373176575e-01 1.003557220101356506e-01 1.002563908696174622e-01 1.001574099063873291e-01 1.000581681728363037e-01 1.000934690237045288e-01 1.000019833445549011e-01 1.009690761566162109e-01 1.008963286876678467e-01 1.008239984512329102e-01 1.007514521479606628e-01 1.006793305277824402e-01 1.006066873669624329e-01
1.011734306812286377e-01 1.011415794491767883e-01 1.011102125048637390e-01 1.010785549879074097e-01 1.010470762848854065e-01 1.010156124830245972e-01 1.009840145707130432e-01 1.009527444839477539e-01 1.005097851157188416e-01 1.008629426360130310e-01 1.008101925253868103e-01 1.007581129670143127e-01 1.007056310772895813e-01 1.006530374288558960e-01 1.006014347076416016e-01 1.005492657423019409e-01 1.004969924688339233e-01 1.004080027341842651e-01 1.002685129642486572e-01 1.001292541623115540e-01 1.002893820405006409e-01 1.002372279763221741e-01 1.000135093927383423e-01 1.001341491937637329e-01 1.000826209783554077e-01 1.000309884548187256e-01 1.003586426377296448e-01 1.003279164433479309e-01 1.002174541354179382e-01 1.001066192984580994e-01 1.002321690320968628e-01 1.001897230744361877e-01 1.001476198434829712e-01 1.001052409410476685e-01 1.000632122159004211e-01 1.000202968716621399e-01 1.000486984848976135e-01 1.000180095434188843e-01 1.031752675771713257e-01 1.030341461300849915e-01 1.028930842876434326e-01 1.027520895004272461e-01 1.026114746928215027e-01 1.024720519781112671e-01 1.023325249552726746e-01 1.021925806999206543e-01 1.020544469356536865e-01 1.019155830144882202e-01 1.017772480845451355e-01 1.016394495964050293e-01 1.015023365616798401e-01 1.013652831315994263e-01 1.012282818555831909e-01 1.010919660329818726e-01 1.009563282132148743e-01 1.008208915591239929e-01 1.006858274340629578e-01 1.005506515502929688e-01 1.004170775413513184e-01 1.000865176320075989e-01 1.001486852765083313e-01 1.000155657529830933e-01 1.019243001937866211e-01 1.017849966883659363e-01 1.016459167003631592e-01 1.015072092413902283e-01 1.013687327504158020e-01 1.012306287884712219e-01 1.010935232043266296e-01 1.009563282132148743e-01 1.008191853761672974e-01 1.006825789809226990e-01 1.005464866757392883e-01 1.004106178879737854e-01 1.002752631902694702e-01 1.001407280564308167e-01 1.000061035156250000e-01 1.013334617018699646e-01 1.012046784162521362e-01 1.010765284299850464e-01 1.006403639912605286e-01 1.008216664195060730e-01 1.006941795349121094e-01 1.005673184990882874e-01 1.004409343004226685e-01 1.003148630261421204e-01 1.001889556646347046e-01 1.000635176897048950e-01 1.000606119632720947e-01 1.023616120219230652e-01 1.022428050637245178e-01 1.021226719021797180e-01 1.020040959119796753e-01 1.018857955932617188e-01 1.017683967947959900e-01 1.016503274440765381e-01 1.015322133898735046e-01 1.014150083065032959e-01 1.012980639934539795e-01 1.011813953518867493e-01 1.010653078556060791e-01 1.000458002090454102e-01 1.002878472208976746e-01 1.005307585000991821e-01 1.006017401814460754e-01 1.004863604903221130e-01 1.003712490200996399e-01 1.002570092678070068e-01 1.001427173614501953e-01 1.000283882021903992e-01 1.003657132387161255e-01 1.002663597464561462e-01 1.001669019460678101e-01 1.000674888491630554e-01 1.007348820567131042e-01 1.006423756480216980e-01 1.005495712161064148e-01 1.004570946097373962e-01 1.003649458289146423e-01
1.013602688908576965e-01 1.013281419873237610e-01 1.012966558337211609e-01 1.012651994824409485e-01 1.012336015701293945e-01 1.012017056345939636e-01 1.011703088879585266e-01 1.011386141180992126e-01 1.011070907115936279e-01 1.010670214891433716e-01 1.010140553116798401e-01 1.009619235992431641e-01 1.009093821048736572e-01 1.008568927645683289e-01 1.007420048117637634e-01 1.007520705461502075e-01 1.007000580430030823e-01 1.006482467055320740e-01 1.005957201123237610e-01 1.001707315444946289e-01 1.003687903285026550e-01 1.002958267927169800e-01 1.001563444733619690e-01 1.000173985958099365e-01 1.002838537096977234e-01 1.002320125699043274e-01 1.001803800463676453e-01 1.001286432147026062e-01 1.000772714614868164e-01 1.000253334641456604e-01 1.003379002213478088e-01 1.002271100878715515e-01 1.001162528991699219e-01 1.000048816204071045e-01 1.002513319253921509e-01 1.002088710665702820e-01 1.001662909984588623e-01 1.001235991716384888e-01 1.000818535685539246e-01 1.000392287969589233e-01 1.001079976558685303e-01 1.000772714614868164e-01 1.000464111566543579e-01 1.000155657529830933e-01 1.028028577566146851e-01 1.026616245508193970e-01 1.025225445628166199e-01 1.023819223046302795e-01 1.022428050637245178e-01 1.021040603518486023e-01 1.019650548696517944e-01 1.018267497420310974e-01 1.016889736056327820e-01 1.015521958470344543e-01 1.014140620827674866e-01 1.012777164578437805e-01 1.005142554640769958e-01 1.010045558214187622e-01 1.008697748184204102e-01 1.007341071963310242e-01 1.005997359752655029e-01 1.004644855856895447e-01 1.003305241465568542e-01 1.001972258090972900e-01 1.000627502799034119e-01 1.021438390016555786e-01 1.020034626126289368e-01 1.018642559647560120e-01 1.017248034477233887e-01 1.015860438346862793e-01 1.014475002884864807e-01 1.013093441724777222e-01 1.011717095971107483e-01 1.010339856147766113e-01 1.008971035480499268e-01 1.007604375481605530e-01 1.003199294209480286e-01 1.004882082343101501e-01 1.003523394465446472e-01 1.002172976732254028e-01 1.000823155045509338e-01 1.012752130627632141e-01 1.011467278003692627e-01 1.010187268257141113e-01 1.008912026882171631e-01 1.007638499140739441e-01 1.006368100643157959e-01 1.005100980401039124e-01 1.003833934664726257e-01 1.002576202154159546e-01 1.001320108771324158e-01 1.000064089894294739e-01 1.000633612275123596e-01 1.024075224995613098e-01 1.023044064640998840e-01 1.022008657455444336e-01 1.020973771810531616e-01 1.019945740699768066e-01 1.002134680747985840e-01 1.004564836621284485e-01 1.007000580430030823e-01 1.009459048509597778e-01 1.011921763420104980e-01 1.013812795281410217e-01 1.012800633907318115e-01 1.011788994073867798e-01 1.010727882385253906e-01 1.009569466114044189e-01 1.008410602807998657e-01 1.007245108485221863e-01 1.006091535091400146e-01 1.004943773150444031e-01 1.003789305686950684e-01 1.002646759152412415e-01 1.001497581601142883e-01 1.000360250473022461e-01 1.000777259469032288e-01 1.012167111039161682e-01 1.011432930827140808e-01
1.015477925539016724e-01 1.009844839572906494e-01 1.014841049909591675e-01 1.014525294303894043e-01 1.014208123087882996e-01 1.013886481523513794e-01 1.013572886586189270e-01 1.013254746794700623e-01 1.012938395142555237e-01 1.012623831629753113e-01 1.000025197863578796e-01 1.008313596248626709e-01 1.011139601469039917e-01 1.010609418153762817e-01 1.010086089372634888e-01 1.001313999295234680e-01 1.003290638327598572e-01 1.005273610353469849e-01 1.000228971242904663e-01 1.006246060132980347e-01 1.006943359971046448e-01 1.006420627236366272e-01 1.005898565053939819e-01 1.004624888300895691e-01 1.003222316503524780e-01 1.001826748251914978e-01 1.000439673662185669e-01 1.003297567367553711e-01 1.002781763672828674e-01 1.002266481518745422e-01 1.001748666167259216e-01 1.001232936978340149e-01 1.000716164708137512e-01 1.000198423862457275e-01 1.002367660403251648e-01 1.001254320144653320e-01 1.000151112675666809e-01 1.003125607967376709e-01 1.002701967954635620e-01 1.002278774976730347e-01 1.001855880022048950e-01 1.001428738236427307e-01 1.001009643077850342e-01 1.000580191612243652e-01 1.000158712267875671e-01 1.001362949609756470e-01 1.001052409410476685e-01 1.000743657350540161e-01 1.000436618924140930e-01 1.000125110149383545e-01 1.024326533079147339e-01 1.022925898432731628e-01 1.000616103410720825e-01 1.009436547756195068e-01 1.018424108624458313e-01 1.017386987805366516e-01 1.016006916761398315e-01 1.014635264873504639e-01 1.013273522257804871e-01 1.011901423335075378e-01 1.010544002056121826e-01 1.009183898568153381e-01 1.007832139730453491e-01 1.006477847695350647e-01 1.005134880542755127e-01 1.003787815570831299e-01 1.002445816993713379e-01 1.001110523939132690e-01 1.023644953966140747e-01 1.022238209843635559e-01 1.020833849906921387e-01 1.019436419010162354e-01 1.000019833445549011e-01 1.008868515491485596e-01 1.015260815620422363e-01 1.013875529170036316e-01 1.012497097253799438e-01 1.011120826005935669e-01 1.009748354554176331e-01 1.004366204142570496e-01 1.007016077637672424e-01 1.005653142929077148e-01 1.004295423626899719e-01 1.002938300371170044e-01 1.001587882637977600e-01 1.000241115689277649e-01 1.010885313153266907e-01 1.009609922766685486e-01 1.008333042263984680e-01 1.007060930132865906e-01 1.005790457129478455e-01 1.004521697759628296e-01 1.003263816237449646e-01 1.001999825239181519e-01 1.000743657350540161e-01 1.000277772545814514e-01 1.006247624754905701e-01 1.008691564202308655e-01 1.011150479316711426e-01 1.013633981347084045e-01 1.016113981604576111e-01 1.018606126308441162e-01 1.017992272973060608e-01 1.016970202326774597e-01 1.015950217843055725e-01 1.014929041266441345e-01 1.013914719223976135e-01 1.012894585728645325e-01 1.011882722377777100e-01 1.010872870683670044e-01 1.009868159890174866e-01 1.008862331509590149e-01 1.007852330803871155e-01 1.006845831871032715e-01 1.005846038460731506e-01 1.004848256707191467e-01 1.003852337598800659e-01 1.002856940031051636e-01 1.001858934760093689e-01
1.017356961965560913e-01 1.017042770981788635e-01 1.016724035143852234e-01 1.016405522823333740e-01 1.016084104776382446e-01 1.015767529606819153e-01 1.015448048710823059e-01 1.000912562012672424e-01 1.009219661355018616e-01 1.014498621225357056e-01 1.014178320765495300e-01 1.000928580760955811e-01 1.002896055579185486e-01 1.004872843623161316e-01 1.006863638758659363e-01 1.003668680787086487e-01 1.009735912084579468e-01 1.002131626009941101e-01 1.010031551122665405e-01 1.009502559900283813e-01 1.004296913743019104e-01 1.008455604314804077e-01 1.007932946085929871e-01 1.007409244775772095e-01 1.006886065006256104e-01 1.006301641464233398e-01 1.004897505044937134e-01 1.003498807549476624e-01 1.002102494239807129e-01 1.000710055232048035e-01 1.003763228654861450e-01 1.003243848681449890e-01 1.002724990248680115e-01 1.002209782600402832e-01 1.001688912510871887e-01 1.001174747943878174e-01 1.000661179423332214e-01 1.000141948461532593e-01 1.001352220773696899e-01 1.000241115689277649e-01 1.003741696476936340e-01 1.003314480185508728e-01 1.002892255783081055e-01 1.002462729811668396e-01 1.002041175961494446e-01 1.001617014408111572e-01 1.001191586256027222e-01 1.000771149992942810e-01 1.000348031520843506e-01 1.001952365040779114e-01 1.001641452312469482e-01 1.001333892345428467e-01 1.001024916768074036e-01 1.000714600086212158e-01 1.000407561659812927e-01 1.000099182128906250e-01 1.020647808909416199e-01 1.019268333911895752e-01 1.017886325716972351e-01 1.016503274440765381e-01 1.015136614441871643e-01 1.013768836855888367e-01 1.012393832206726074e-01 1.011031940579414368e-01 1.009672135114669800e-01 1.008315980434417725e-01 1.006960347294807434e-01 1.005617603659629822e-01 1.004272326827049255e-01 1.002930626273155212e-01 1.001597121357917786e-01 1.000254899263381958e-01 1.024446561932563782e-01 1.023034527897834778e-01 1.021631062030792236e-01 1.020226776599884033e-01 1.009612977504730225e-01 1.017434373497962952e-01 1.016051024198532104e-01 1.014661937952041626e-01 1.013278216123580933e-01 1.011901423335075378e-01 1.010528430342674255e-01 1.009159088134765625e-01 1.007790341973304749e-01 1.006426811218261719e-01 1.005071699619293213e-01 1.003710925579071045e-01 1.002363041043281555e-01 1.001012697815895081e-01 1.000639721751213074e-01 1.003059595823287964e-01 1.005497276782989502e-01 1.006482467055320740e-01 1.005215048789978027e-01 1.003956943750381470e-01 1.002688184380531311e-01 1.001428738236427307e-01 1.000172421336174011e-01 1.022871658205986023e-01 1.023242175579071045e-01 1.022207960486412048e-01 1.021169424057006836e-01 1.020141020417213440e-01 1.019116193056106567e-01 1.018091887235641479e-01 1.017069593071937561e-01 1.016046255826950073e-01 1.015028133988380432e-01 1.014010384678840637e-01 1.012996360659599304e-01 1.011984273791313171e-01 1.010971143841743469e-01 1.009959951043128967e-01 1.008950844407081604e-01 1.007946878671646118e-01 1.006944850087165833e-01 1.005943343043327332e-01 1.004940643906593323e-01
